2.387268901895593487e+00 2.354777551036588257e+00 2.314041838623266401e+00 2.272230876504451658e+00 2.236383982538747262e+00 2.215075662409624613e+00 2.215979158777933833e+00 2.237210576996221612e+00 2.265169656118256380e+00 2.285944424131960417e+00 2.298834584788344237e+00 2.311535620493285759e+00 2.320929339162300487e+00 2.314092467275018716e+00 2.291107380136875538e+00 2.268950734514466383e+00 2.260827317627079225e+00 2.264159987346580749e+00 2.267220584090496871e+00 2.260977216110649390e+00 2.245570418820115322e+00 2.228694385571318382e+00 2.219617068090085965e+00 2.220939480409672040e+00 2.224723727752914382e+00 2.220890584798741241e+00 2.207420276646622437e+00 2.189770843104337228e+00 2.172495087577292150e+00 2.155306761135872939e+00 2.138508291701031183e+00 2.125759549933680326e+00 2.118292490739718481e+00 2.112085546147096871e+00 2.103293779753738768e+00 2.093029764146542071e+00 2.084290924769145459e+00 2.077526431973425236e+00 2.073059928056678380e+00 2.073429604510965696e+00 2.079052586832663252e+00 2.085877434798804941e+00 2.089610604967463203e+00 2.088943273067711104e+00 2.084305775432145236e+00 2.075618179071200942e+00 2.060796361301634239e+00 2.037617257803295168e+00 2.010000216089948388e+00 1.986854968195558735e+00 1.970343125189169875e+00 1.954987335139883875e+00 1.941020062268095536e+00 1.935651503203380308e+00 1.938887078456602353e+00 1.941516202822791914e+00 1.938288245472837845e+00 1.931032975949659392e+00 1.920662598710946911e+00 1.907017602490724606e+00 1.894503062287299144e+00 1.889853684694563052e+00 1.895189157139542058e+00 1.907678389234074512e+00 1.924239029609209783e+00 1.942713314827597237e+00 1.960908853973798660e+00 1.977329511521509708e+00 1.990383601025845994e+00 1.998090898351053912e+00 2.002475620827971703e+00 2.010279379843695757e+00 2.025175854977536716e+00 2.042627609496015850e+00 2.055435272391565871e+00 2.063195730028125396e+00 2.072472683018069528e+00 2.087405747264302391e+00 2.106820709193795160e+00 2.130045685171290337e+00 2.157398142462871427e+00 2.186461000917691244e+00 2.212728806505054990e+00 2.231891379390767760e+00 2.242492035283464080e+00 2.247683855953684695e+00 2.251620199598227678e+00 2.256688265509587232e+00 2.265194963043103193e+00 2.278907183393599212e+00 2.297407622093419644e+00 2.320561238450185915e+00 2.351255356105000693e+00 2.391507761146300481e+00 2.436416174321463846e+00 2.475551411876044217e+00 2.500933573798255871e+00 2.512704672822634322e+00 2.517123846117742758e+00 2.521018358939826953e+00 2.529535818021188653e+00 2.546115311373636114e+00 2.570099462365160736e+00 2.593311989046112487e+00 2.602900721560799546e+00 2.591203212921589838e+00 2.561845718934617988e+00 2.525293296314221614e+00 2.489618043925199586e+00 2.456939001537470357e+00 2.426923962344926800e+00 2.400598569460690168e+00 2.380478524289251219e+00 2.368230346617987259e+00 2.362338962772052131e+00 2.356755046375964557e+00 2.345337280430670468e+00 2.330969168191952434e+00 2.323939564565546512e+00
2.383401318367673216e+00 2.347553695916312577e+00 2.303599496332600083e+00 2.260073623365407958e+00 2.223509997412395300e+00 2.199326826363337872e+00 2.192642071241289514e+00 2.204312858193796743e+00 2.226300208221246635e+00 2.245791577271929906e+00 2.258672357327998093e+00 2.271598230582001055e+00 2.284446833628157147e+00 2.284773097619299254e+00 2.266820407864206022e+00 2.241638050881769040e+00 2.224768012028974340e+00 2.222616974668061296e+00 2.229166714079111600e+00 2.232832882653100537e+00 2.226528384033688024e+00 2.211861950497379325e+00 2.198083032320464092e+00 2.193706300799368236e+00 2.196042454035240343e+00 2.194613279474833867e+00 2.183830428187614192e+00 2.167833346004774953e+00 2.152516055308158371e+00 2.137763056638730674e+00 2.122286393455058207e+00 2.108718693553738088e+00 2.098668799432307885e+00 2.089952844476572924e+00 2.081083566023685272e+00 2.073537671156386430e+00 2.068197320146730078e+00 2.063659382619441818e+00 2.060707881889977333e+00 2.063370208883282597e+00 2.071979724347237095e+00 2.080924057096978697e+00 2.085193560461238160e+00 2.083960871484719313e+00 2.077874532652413286e+00 2.066645219184572113e+00 2.048706806591043872e+00 2.023327869475140872e+00 1.995614663986137849e+00 1.974417212404239619e+00 1.961095184077968456e+00 1.949093002611646863e+00 1.937131633648401685e+00 1.931499981834244650e+00 1.933027419425290327e+00 1.933849825739780037e+00 1.929212226051922441e+00 1.921141180312486707e+00 1.911052594468085619e+00 1.899341957499575351e+00 1.890683061949478549e+00 1.891200719438722366e+00 1.901399527339753703e+00 1.917329865511289366e+00 1.936150560469874993e+00 1.955771399524989462e+00 1.973040116907006647e+00 1.986349034293386273e+00 1.996323910093513954e+00 2.003535700819209620e+00 2.009785492928856332e+00 2.019420436129829799e+00 2.034897310779159696e+00 2.052302750057867886e+00 2.064897550736017440e+00 2.071766634420534992e+00 2.078791230913968224e+00 2.090179694209087113e+00 2.105788756785135440e+00 2.126520686096373680e+00 2.154068095216794543e+00 2.186041447115450786e+00 2.216639764926683576e+00 2.240641437518689827e+00 2.256172232586863391e+00 2.265344855677856373e+00 2.271107340609559877e+00 2.275361768236430215e+00 2.281126133661992572e+00 2.292122589703195157e+00 2.309700537222481032e+00 2.334081545311232908e+00 2.367467722241341832e+00 2.410370109833677610e+00 2.456041821141118575e+00 2.494238151685074456e+00 2.519354321091434201e+00 2.531875227450605781e+00 2.535252327866119426e+00 2.534901097565353201e+00 2.538642210280073641e+00 2.553277257806636502e+00 2.577574900139683933e+00 2.599390515894143050e+00 2.602758658010025261e+00 2.580815275763642447e+00 2.541847052200989054e+00 2.500690140402176631e+00 2.465264381669391103e+00 2.434634149703926553e+00 2.406238994745343973e+00 2.379886093447752149e+00 2.357181788884381568e+00 2.340312911872401980e+00 2.329951412916230424e+00 2.322210460593109538e+00 2.312113099988575726e+00 2.302344957918473156e+00 2.301092777551179136e+00
2.374893385411407820e+00 2.337836272610742672e+00 2.294591945280417544e+00 2.253558340813512473e+00 2.219422222382784415e+00 2.193665406283502595e+00 2.178182179206201941e+00 2.177314308541535404e+00 2.191198566736789477e+00 2.209552887666784482e+00 2.222763212589741855e+00 2.233613780332501353e+00 2.245799778496088361e+00 2.251158276020810867e+00 2.239926363043498903e+00 2.215519547557955438e+00 2.192842848030602809e+00 2.185134467942324132e+00 2.192522602219015404e+00 2.203532756626425115e+00 2.206023743694901285e+00 2.195672097475203977e+00 2.180014410319961016e+00 2.171195889470945328e+00 2.170744720845132925e+00 2.169047988246461500e+00 2.159514765936195513e+00 2.145911726828986232e+00 2.133999536180256840e+00 2.122461255452225082e+00 2.108391434104393003e+00 2.094153367782280117e+00 2.082723169457288304e+00 2.073779419097084187e+00 2.066575785662884801e+00 2.061213370812349233e+00 2.056629154442255913e+00 2.051471668379009294e+00 2.048272436078375058e+00 2.051999803524115151e+00 2.062265886480800336e+00 2.072557425845515500e+00 2.077869072787675631e+00 2.077302823787701591e+00 2.070479899190238449e+00 2.056478683668996332e+00 2.035269910509391877e+00 2.008649070200318132e+00 1.982087387712810678e+00 1.962740444756017943e+00 1.951167837685876760e+00 1.941003026900064210e+00 1.930071352516485650e+00 1.923470745077477950e+00 1.922756352090658760e+00 1.921764622525467647e+00 1.916191888709440683e+00 1.907749118369822749e+00 1.898527034805645108e+00 1.890319302473149499e+00 1.887910739672628235e+00 1.895302112193351096e+00 1.910515861301405938e+00 1.929332347289336669e+00 1.950285556066162496e+00 1.971345897937189173e+00 1.987672667639571067e+00 1.997214467354895051e+00 2.002952379562574325e+00 2.008327460597240322e+00 2.015296520744178199e+00 2.025705699230663015e+00 2.040514065635730123e+00 2.057304986511446998e+00 2.071095375964931762e+00 2.079627064766572442e+00 2.085782612035344208e+00 2.093444064951271777e+00 2.105006124297275072e+00 2.123462017475452157e+00 2.151081338394766007e+00 2.185200900920097222e+00 2.219368264369734334e+00 2.248129311254945861e+00 2.269099096357207745e+00 2.282515104426475983e+00 2.289844337133128516e+00 2.293528604069969834e+00 2.298191591061502059e+00 2.308781901655578395e+00 2.326737310008361703e+00 2.351524641418454298e+00 2.384564056905748686e+00 2.425545548291131670e+00 2.467048453306382783e+00 2.499814729392769497e+00 2.520790399469053700e+00 2.531163554174752139e+00 2.532177043129553606e+00 2.528276437478249150e+00 2.529730517761987763e+00 2.545346519204677360e+00 2.571941701485526366e+00 2.593776746110040499e+00 2.593778309536102444e+00 2.566932260061477233e+00 2.524110984093957732e+00 2.481360150481409121e+00 2.446092415706065282e+00 2.416402515105424698e+00 2.388829890606289474e+00 2.361707031786654198e+00 2.335361668984360151e+00 2.312811531493067729e+00 2.297366022970189992e+00 2.287453276387436674e+00 2.278836575576892898e+00 2.273050231861938553e+00 2.275838121056875440e+00
2.361837787789180965e+00 2.328575159270151129e+00 2.291405649422232571e+00 2.256832955679345609e+00 2.226670171067815396e+00 2.199085229794980556e+00 2.174182243641289425e+00 2.159979156718605964e+00 2.164235362536037766e+00 2.180010744110251864e+00 2.193110379383474307e+00 2.201217638975026869e+00 2.210453018407128933e+00 2.218221672601899730e+00 2.213766167629112491e+00 2.194320562775179617e+00 2.171543697067522594e+00 2.160581482878210835e+00 2.165687807818820421e+00 2.178101869064676954e+00 2.184718137062779952e+00 2.177597747711407017e+00 2.161699613679749277e+00 2.149977281070055923e+00 2.146450698849320382e+00 2.143383749894520740e+00 2.135176879897890956e+00 2.125169849742464478e+00 2.117294526734879057e+00 2.108616692179467567e+00 2.095648353157970156e+00 2.081164313735316185e+00 2.069445310740372079e+00 2.061502760957613312e+00 2.056437239386298188e+00 2.052434125992557590e+00 2.046968225162995481e+00 2.039586278088466376e+00 2.034498116577576177e+00 2.036898676272506314e+00 2.046186661460139167e+00 2.056704415488943560e+00 2.064114631037273995e+00 2.066146245542731297e+00 2.059831545052364099e+00 2.043509568454825676e+00 2.019595174330801157e+00 1.992519365922753583e+00 1.966927701663288897e+00 1.947408046641299517e+00 1.934430463641704012e+00 1.923424370574364772e+00 1.912660753838791639e+00 1.906168404156658225e+00 1.905048021919943046e+00 1.904011627675306517e+00 1.899595581348080264e+00 1.893583989803353962e+00 1.888347914570700725e+00 1.886393288910650279e+00 1.892034246402493514e+00 1.906771897041775077e+00 1.926394190465487100e+00 1.947214236971968493e+00 1.969618502445312558e+00 1.991605670711721787e+00 2.006647407634310820e+00 2.012120945749876544e+00 2.012718226560765267e+00 2.014447929806210347e+00 2.020318256826639569e+00 2.030740701426042794e+00 2.045132583539886362e+00 2.062019495599908492e+00 2.078090132090325781e+00 2.089606396153016910e+00 2.095876309482798128e+00 2.100424128996625228e+00 2.108747479002984981e+00 2.125686886373101103e+00 2.152992928699041908e+00 2.187560381176667068e+00 2.223577639851983534e+00 2.256514981302815581e+00 2.283495334525991627e+00 2.302131678054316843e+00 2.311847159123406215e+00 2.315950840370891051e+00 2.320929683197761051e+00 2.332070220712526787e+00 2.350063274498032762e+00 2.373947516103871003e+00 2.404656004663804580e+00 2.440324404433235728e+00 2.472397139824394685e+00 2.493610294833922936e+00 2.505306580853594589e+00 2.510865528205994401e+00 2.509545394323356327e+00 2.503966180282469978e+00 2.505394666490820654e+00 2.523021799503050833e+00 2.551375312173735033e+00 2.573027392806904512e+00 2.572805532288557906e+00 2.548481567477995480e+00 2.510190986184334783e+00 2.470672041088020521e+00 2.435826896966177380e+00 2.405153553617847884e+00 2.376942568153255664e+00 2.349179584733878556e+00 2.320402727436809531e+00 2.292940777787888518e+00 2.271602541087868854e+00 2.257802693952574380e+00 2.249364234075990066e+00 2.246473765311367110e+00 2.251484523809244020e+00
2.345396086430835414e+00 2.319750975140847160e+00 2.291720598936001885e+00 2.265018251855584364e+00 2.238405404129957255e+00 2.207989883295162770e+00 2.174096162638732732e+00 2.148019443628417680e+00 2.142687539791477302e+00 2.154566604344235969e+00 2.167437865581903544e+00 2.174083501165581467e+00 2.180451889242770225e+00 2.188712018471759002e+00 2.190137477315854397e+00 2.178529446390996327e+00 2.160267854798995302e+00 2.147600042102505213e+00 2.146751514969028829e+00 2.153771536690124666e+00 2.158540868050849326e+00 2.152412153841944953e+00 2.137693798670364131e+00 2.125837581660829922e+00 2.121725464085763679e+00 2.119471092220570618e+00 2.114285887015800114e+00 2.108071884859692879e+00 2.102638569639397659e+00 2.094871086142712002e+00 2.082372219521599011e+00 2.068308667617821506e+00 2.057066278399480641e+00 2.050209631420245593e+00 2.046771717010790859e+00 2.043603898783976192e+00 2.037189024660447156e+00 2.027720017591432278e+00 2.020125447463920754e+00 2.019255616251457663e+00 2.025267976495520816e+00 2.034951800545329981e+00 2.044852872839512781e+00 2.050306320490209000e+00 2.045293264499502772e+00 2.027956878588692113e+00 2.003061346963460387e+00 1.976281902831425574e+00 1.950655552191517206e+00 1.928895713243002685e+00 1.912265801303093760e+00 1.898715319758959907e+00 1.887966642211066803e+00 1.883273854677634418e+00 1.884187773589977688e+00 1.885498207317251707e+00 1.885178862172101066e+00 1.885597568296013105e+00 1.888342378750409667e+00 1.894669525704934188e+00 1.907574732852319821e+00 1.927206703593378423e+00 1.948948666440648125e+00 1.970254055719564246e+00 1.992640255855486542e+00 2.014102316543522342e+00 2.027746633726307035e+00 2.030634195170671230e+00 2.027298607096597927e+00 2.024777422362975976e+00 2.027868247475088204e+00 2.037417768439810040e+00 2.051934751230585441e+00 2.069643552493086958e+00 2.087712568460982077e+00 2.101705285529517742e+00 2.108968080810689649e+00 2.112565516448931202e+00 2.119317325384774353e+00 2.134577970863132279e+00 2.159798759466351026e+00 2.192680708940712098e+00 2.229063122246234485e+00 2.265408639676727454e+00 2.298405235669868318e+00 2.323509927455595481e+00 2.337879208767819517e+00 2.344632920484698069e+00 2.351114089810796060e+00 2.362568855580271965e+00 2.379419667041372755e+00 2.401161773072042038e+00 2.428411236104567550e+00 2.456774941305663429e+00 2.475766993874263910e+00 2.480752350730251798e+00 2.479021192989026900e+00 2.477578792880434477e+00 2.474166469870872298e+00 2.468649575187757073e+00 2.471398765501457984e+00 2.490285497066801135e+00 2.517624104807562269e+00 2.536651814485619383e+00 2.537033026875791464e+00 2.520005214659919446e+00 2.492648595459519889e+00 2.461742977396196963e+00 2.430611913645040367e+00 2.400181882259952104e+00 2.371269625637052680e+00 2.342988948718522924e+00 2.313156149476175649e+00 2.282727676754938706e+00 2.256261357031165815e+00 2.237583021380693538e+00 2.227631519665928650e+00 2.226258106299857431e+00 2.232334147634619015e+00
2.327682825307252124e+00 2.310007417411405584e+00 2.290244749355216491e+00 2.269269685741070575e+00 2.243906649749831672e+00 2.210111423214446091e+00 2.169695613180734117e+00 2.135439527695154993e+00 2.121898473264178797e+00 2.128657428085694026e+00 2.140917598338416106e+00 2.148319299513341996e+00 2.154106133121581390e+00 2.162569432865267149e+00 2.168281712414298568e+00 2.164288193875562705e+00 2.151654413584121794e+00 2.137364541699724896e+00 2.127980755048520134e+00 2.125191728075721986e+00 2.124383925516317717e+00 2.118464737834059974e+00 2.107248252856021242e+00 2.098864878790828836e+00 2.097692200037518440e+00 2.099247964104899999e+00 2.098489845622363070e+00 2.094910812814438028e+00 2.088925534573536247e+00 2.079240597433360982e+00 2.066068585076992203e+00 2.052811523803588223e+00 2.042762230124338885e+00 2.037127239814570778e+00 2.034896238248376399e+00 2.032404712717930551e+00 2.025750172433143703e+00 2.015329992367282941e+00 2.005849524536170936e+00 2.001552785973117032e+00 2.003874191801932270e+00 2.012296643047000178e+00 2.023905802731328585e+00 2.031811105408129592e+00 2.028076038698529260e+00 2.011274311476463073e+00 1.987266081164403619e+00 1.961252565495392508e+00 1.935032436910840703e+00 1.910991606625016770e+00 1.891403998576151269e+00 1.876193235733661702e+00 1.866482117316454303e+00 1.864795921364941655e+00 1.869163013773266213e+00 1.874615135403188582e+00 1.880471413623020283e+00 1.889402234616023302e+00 1.901747577595931382e+00 1.916273464181123209e+00 1.933640608129515215e+00 1.953827025300448383e+00 1.974261644375656211e+00 1.994346424115042371e+00 2.015661610493052258e+00 2.036011892731627526e+00 2.049650176434563154e+00 2.053518718494692585e+00 2.049543094240434460e+00 2.043449738966985674e+00 2.042054166403941551e+00 2.048802865720398714e+00 2.062784083549798808e+00 2.081056772100627672e+00 2.099784607364473921e+00 2.114852130163641597e+00 2.124141113523151159e+00 2.129798525914056828e+00 2.136541993305407061e+00 2.148654808522763027e+00 2.169212481726118469e+00 2.198924379764301662e+00 2.235198977511363427e+00 2.274264023655514499e+00 2.312570099783505917e+00 2.345001141366686692e+00 2.366648479304577002e+00 2.378391458826219829e+00 2.386615532184531041e+00 2.396921149442705179e+00 2.410876072699811967e+00 2.428938347438692524e+00 2.451151874517830009e+00 2.470853206547296121e+00 2.476332777795308360e+00 2.465324854373564634e+00 2.449783990091190855e+00 2.440087054498191854e+00 2.433901024369583332e+00 2.429123428883176228e+00 2.433931851750188891e+00 2.453084770471715359e+00 2.476585148186103424e+00 2.490093838142959370e+00 2.489615950996161065e+00 2.479903734713129637e+00 2.464878913440132990e+00 2.445700039289999239e+00 2.422345120504342475e+00 2.395171415012284921e+00 2.366375843914808819e+00 2.337206700997892295e+00 2.306791672588011544e+00 2.275540068697812224e+00 2.246640874626300022e+00 2.224474267885248047e+00 2.212427169665549531e+00 2.211257348668068445e+00 2.217763760974413856e+00
2.311832116809779514e+00 2.300426297703813461e+00 2.285934615442473117e+00 2.266629748881459516e+00 2.239387665517329040e+00 2.202532201938961265e+00 2.159686291871463215e+00 2.122022710899407638e+00 2.101923484186090985e+00 2.101701409105914742e+00 2.111490213398085736e+00 2.120887178521183802e+00 2.129026399181110918e+00 2.138606273540590408e+00 2.146454250139736786e+00 2.146961848060815026e+00 2.138402701779605231e+00 2.123211986819236952e+00 2.106806401081893654e+00 2.094874991832194056e+00 2.088410258619175064e+00 2.083173973466953210e+00 2.077041495073213007e+00 2.073888885274453919e+00 2.076749460296470673e+00 2.082571667090993728e+00 2.085871807250216037e+00 2.083371179499916792e+00 2.074453620561230949e+00 2.060629827019205607e+00 2.045648858769895551e+00 2.033501272872971111e+00 2.025878136111267214e+00 2.022448731671857125e+00 2.021373562903590937e+00 2.018938205554365428e+00 2.011829708280645335e+00 2.000953500595163081e+00 1.990574360593206915e+00 1.984229249029229258e+00 1.984204924437031003e+00 1.991699646896436970e+00 2.003997926815761055e+00 2.013141336808119242e+00 2.010766419462471699e+00 1.995725578684491186e+00 1.973427876864734642e+00 1.947962644147107625e+00 1.920992986386751644e+00 1.895671592554707185e+00 1.875179597432448109e+00 1.860900511113681599e+00 1.854717198750508889e+00 1.857835137948001591e+00 1.867037443207944403e+00 1.877706516420393212e+00 1.889357325386760822e+00 1.904535902555434701e+00 1.923896179874400092e+00 1.944884214735040917e+00 1.965097903637262444e+00 1.983599355761221705e+00 2.000282249238938270e+00 2.017221512243527304e+00 2.036611072278192935e+00 2.056601977128296177e+00 2.072797770569431819e+00 2.081197893305497093e+00 2.079486405903553603e+00 2.070622616720011688e+00 2.063218014636051922e+00 2.064772520396345179e+00 2.076562069071891781e+00 2.094413788103755891e+00 2.112583566218328102e+00 2.127814139798775983e+00 2.139995113547540573e+00 2.149700652286721692e+00 2.157056017416013383e+00 2.164737431222734543e+00 2.179354393793036859e+00 2.205781720494586207e+00 2.242204606060965499e+00 2.283635413479248477e+00 2.326563508709454275e+00 2.366363832432676340e+00 2.396179144694604357e+00 2.413300828880105442e+00 2.422104947995482149e+00 2.429180712641225703e+00 2.438533841867578378e+00 2.451655505967018200e+00 2.467189335974230069e+00 2.477014441454623572e+00 2.470390436517075905e+00 2.447320280944176751e+00 2.421459205661413261e+00 2.404535771194653115e+00 2.395280650991137961e+00 2.391494126641454443e+00 2.399179686236764475e+00 2.418902165363539858e+00 2.437956880213207889e+00 2.444752996896698782e+00 2.441266977913284286e+00 2.435448271861461400e+00 2.429766800420308570e+00 2.421852234642746904e+00 2.407995217306839297e+00 2.385943394921159477e+00 2.357931795657036034e+00 2.327700839043640002e+00 2.296894636437009307e+00 2.266025363417256244e+00 2.236623864382373039e+00 2.212461078889092825e+00 2.198219188448121031e+00 2.196107080870739914e+00 2.202606652459209613e+00
2.298573645893172923e+00 2.292337401704714228e+00 2.281110228674675167e+00 2.260776356998671854e+00 2.229822801059513804e+00 2.190874343317322115e+00 2.149218143988334440e+00 2.112093531165538884e+00 2.087292552552592273e+00 2.078792193614519501e+00 2.083001390418619092e+00 2.092299084405243814e+00 2.102421523952688442e+00 2.112550736709541521e+00 2.120345942490611701e+00 2.122277711522440491e+00 2.116413865291537633e+00 2.103085078397358476e+00 2.085778449772567100e+00 2.070559795845898776e+00 2.061367878666767073e+00 2.056878380415988250e+00 2.054481509457367849e+00 2.054824743132787734e+00 2.059772485652544560e+00 2.067903979317342600e+00 2.073702072331637059e+00 2.071259570123635818e+00 2.058942844015501539e+00 2.040951693058652872e+00 2.024322115218393670e+00 2.013746115986944307e+00 2.009462204618852610e+00 2.009015662453760509e+00 2.008898962139038069e+00 2.005343573326006990e+00 1.996532313608907483e+00 1.984800714290255508e+00 1.974390205152256605e+00 1.967942771882398301e+00 1.967450209997796406e+00 1.974492829951095985e+00 1.986628937759990388e+00 1.996224508338559467e+00 1.995457456394681195e+00 1.982862755285064615e+00 1.962374880445853620e+00 1.937032430361219415e+00 1.908960952381999920e+00 1.882495563638300728e+00 1.862352682247372826e+00 1.851752869723834349e+00 1.852476236779289742e+00 1.863207534239027741e+00 1.878993839770534358e+00 1.894740998137063759e+00 1.909055034756691249e+00 1.925092918100708150e+00 1.946630006341812269e+00 1.972238712959585527e+00 1.996421818181143504e+00 2.015019859979359396e+00 2.027934109572405053e+00 2.039792229287046954e+00 2.055776768628581053e+00 2.076101506470554359e+00 2.096524810366261260e+00 2.110250831479913991e+00 2.110933271230158503e+00 2.099603792054284490e+00 2.086257127600697814e+00 2.081943365177689742e+00 2.090478163566222847e+00 2.107023805496512026e+00 2.124203268327716554e+00 2.139496770467982589e+00 2.154502890567275397e+00 2.168151565155908678e+00 2.176336899207201636e+00 2.180511988040407800e+00 2.190426726159269588e+00 2.214240906962914313e+00 2.250811306069594675e+00 2.294453988530375188e+00 2.341444548126581093e+00 2.386903791574526590e+00 2.422137004320624953e+00 2.441849678599574247e+00 2.449326937286516070e+00 2.452468811903356638e+00 2.457629582615928676e+00 2.466479204227623345e+00 2.474888390865660703e+00 2.473636044379684318e+00 2.455296765191078201e+00 2.423340501019096038e+00 2.391555569038376294e+00 2.370655327237167320e+00 2.359857672224814351e+00 2.357991329516775814e+00 2.369923831463909281e+00 2.392213329008745504e+00 2.408771008980528094e+00 2.409397511679100656e+00 2.400838748223469210e+00 2.394738717681264895e+00 2.394460708896717804e+00 2.396022346671349723e+00 2.392033528260055331e+00 2.376402199454865638e+00 2.350184068189890674e+00 2.319296030974838718e+00 2.288081587943457063e+00 2.257177770876323208e+00 2.226763990506934743e+00 2.200268150738161843e+00 2.183190529332755592e+00 2.179064197704198236e+00 2.185039992755557492e+00
2.283327811892476245e+00 2.282232462736448309e+00 2.274418055386009385e+00 2.253700906128924597e+00 2.220060615039853857e+00 2.180244021863657178e+00 2.141223230616096096e+00 2.106787921600975722e+00 2.079954638861711391e+00 2.064147699736673225e+00 2.060123274786529457e+00 2.064218497990231604e+00 2.071483087123046296e+00 2.079139744032930004e+00 2.085598337547238668e+00 2.088488932206835180e+00 2.085704728400328278e+00 2.077160095152636554e+00 2.064997607345031572e+00 2.053084000559418421e+00 2.044874534304278679e+00 2.040781556115516260e+00 2.039374059762932401e+00 2.040504870836542750e+00 2.045561996016785677e+00 2.054179167005466766e+00 2.060881487725692462e+00 2.058036467105275769e+00 2.043714715373206037e+00 2.024144880927136292e+00 2.007799462763764531e+00 1.999034255350554679e+00 1.997174926889133006e+00 1.998586548116797923e+00 1.998474402600820543e+00 1.993002639441439960e+00 1.982039489273123234e+00 1.969680892488310686e+00 1.960282639466379928e+00 1.955332130013521796e+00 1.955613033457088479e+00 1.962214627201106509e+00 1.973150818909306992e+00 1.982032218213490182e+00 1.982225943191942896e+00 1.971883221148208243e+00 1.953130171977532470e+00 1.927774059136050155e+00 1.898232542740852624e+00 1.870385153969501335e+00 1.851568852402635912e+00 1.847015581890639080e+00 1.857162619773943479e+00 1.877208282093520086e+00 1.900029565055378900e+00 1.919262476408843954e+00 1.932537634734534659e+00 1.945070075292016032e+00 1.965421893964469202e+00 1.994464424439127193e+00 2.024010089325980033e+00 2.045382820389950673e+00 2.056073894292190563e+00 2.062355009119439142e+00 2.074069078324856541e+00 2.094836910005152486e+00 2.119069199101301315e+00 2.135767273405153599e+00 2.136491685263738560e+00 2.123012952837352696e+00 2.106414407510175391e+00 2.098851076787266567e+00 2.105110497584978368e+00 2.120278145371134126e+00 2.136560571401073805e+00 2.151745794341759055e+00 2.167978642179773097e+00 2.183691097253852131e+00 2.193199755373114179e+00 2.196806208337505062e+00 2.204528754509412103e+00 2.226021302966052495e+00 2.261975743006490180e+00 2.307285437861814170e+00 2.356819493751704186e+00 2.403774740771612350e+00 2.438478058801756276e+00 2.455829980216487129e+00 2.460115064422246700e+00 2.460708000218055247e+00 2.464998493040689631e+00 2.472856832789369186e+00 2.475831123751354390e+00 2.463447956119937388e+00 2.432807529654263057e+00 2.392619261184385948e+00 2.357399419763432036e+00 2.335524596846437095e+00 2.325450681854341450e+00 2.327032836542540561e+00 2.344467463459967149e+00 2.370996432672054510e+00 2.387201995536091026e+00 2.382672634970696812e+00 2.367580170982132692e+00 2.358308975983597122e+00 2.361111162301195332e+00 2.371357012320348456e+00 2.378229334685932006e+00 2.371397927521353477e+00 2.349393369058380365e+00 2.319183106128068772e+00 2.287596351687682716e+00 2.255730621695029470e+00 2.223007481288079124e+00 2.192821389224739015e+00 2.171313647640727318e+00 2.163367201990562094e+00 2.167477951337294151e+00
2.259491417337180064e+00 2.262890015121490350e+00 2.259353433760169061e+00 2.241429607386862699e+00 2.208816918771915105e+00 2.169858302705144570e+00 2.133161642667408930e+00 2.101690618280251499e+00 2.075325782532071450e+00 2.054878208302098663e+00 2.042130677600398236e+00 2.037070481834075242e+00 2.037034444014892198e+00 2.039993978177699230e+00 2.045266089730344294e+00 2.050153033693640658e+00 2.051058658622021191e+00 2.047601734303214904e+00 2.041821172390750228e+00 2.035680923992195357e+00 2.030576405282362273e+00 2.027099844503414516e+00 2.025597491753251322e+00 2.026950275305458238e+00 2.032241908124090557e+00 2.040720068499602302e+00 2.046846328522426539e+00 2.043242735487321049e+00 2.029166966765948210e+00 2.011739256627929961e+00 1.998223793255959890e+00 1.991110425761933200e+00 1.989334257337497913e+00 1.989820322603734759e+00 1.988135279534169353e+00 1.980965652806268018e+00 1.969318232682509828e+00 1.958002334399696398e+00 1.950777901549371807e+00 1.947856457346942793e+00 1.948845988116685968e+00 1.954361987595099048e+00 1.963007120971214103e+00 1.969802483277084404e+00 1.969521185334578206e+00 1.960331323433022188e+00 1.942845349996323856e+00 1.917489287038685930e+00 1.886704541129212931e+00 1.858189972594750383e+00 1.842149710167408916e+00 1.844866171806826660e+00 1.864340984768202869e+00 1.892706264193554588e+00 1.921640904710538056e+00 1.943654631648370268e+00 1.955236508870604961e+00 1.963481752249288004e+00 1.981184409891652898e+00 2.011539814427520501e+00 2.044983885030866588e+00 2.069556852875147790e+00 2.080042715696462263e+00 2.082927062832598430e+00 2.091716604119233214e+00 2.113030398594166748e+00 2.139305817962997125e+00 2.155699986606141927e+00 2.154004430673457371e+00 2.139112939861662177e+00 2.123185949702765640e+00 2.116941593746737738e+00 2.123739932679109543e+00 2.138617295341372682e+00 2.154452850455384816e+00 2.168886960113759255e+00 2.183780299651982393e+00 2.198917399536485018e+00 2.209941441522966787e+00 2.215597000142270900e+00 2.223074924810801711e+00 2.242117752158866217e+00 2.276374271986172371e+00 2.321858215037854389e+00 2.370745746008605437e+00 2.413607716342241361e+00 2.441414207683308746e+00 2.451753996096361909e+00 2.451441913276967810e+00 2.451434402332521412e+00 2.458883310478522155e+00 2.470045601498364274e+00 2.471143031417293745e+00 2.450116664158780821e+00 2.408410352389495301e+00 2.360566505821965588e+00 2.322522704003384675e+00 2.300253810685132461e+00 2.291592371108168269e+00 2.297419649514055084e+00 2.320380711601960577e+00 2.350609142356689052e+00 2.366848042672550001e+00 2.358294750070506929e+00 2.337043639834117670e+00 2.324086876397596146e+00 2.329295889612169379e+00 2.347591535353995340e+00 2.365343859609846611e+00 2.368964998149856171e+00 2.354078280026465908e+00 2.327129643132370251e+00 2.296445626709503252e+00 2.263965552099373557e+00 2.228822974642863386e+00 2.193860200317497178e+00 2.165461068832212455e+00 2.150468685825183357e+00 2.149954222928804004e+00
2.224805028594488476e+00 2.230630011375097865e+00 2.231517202796645893e+00 2.220067117991552319e+00 2.193547189575321354e+00 2.158237185120245982e+00 2.123286175480093352e+00 2.093295163867320063e+00 2.067938038812011659e+00 2.045562661629854340e+00 2.026630495686410516e+00 2.013213654440275668e+00 2.005958635973017490e+00 2.004763195949670340e+00 2.009285696699607993e+00 2.015864168285367963e+00 2.019348691379785343e+00 2.018843648923306588e+00 2.016817806624255915e+00 2.014730267533018537e+00 2.012463153815729378e+00 2.010099243684370762e+00 2.009170676388185584e+00 2.011635110282051997e+00 2.017849216860933659e+00 2.025594294540655760e+00 2.029643818649262244e+00 2.025124233079662162e+00 2.013540178568048233e+00 2.001298276381422880e+00 1.992383106359362666e+00 1.986642796344245010e+00 1.982973402421974951e+00 1.980088698883137877e+00 1.975652801813048587e+00 1.967830293488011861e+00 1.957899425795471160e+00 1.949576599093882701e+00 1.945044634232882208e+00 1.943434415399364346e+00 1.943831424524845808e+00 1.946994511566830788e+00 1.952485127645238627e+00 1.956633467611414101e+00 1.955200474995778759e+00 1.946335518034067125e+00 1.929630925436253586e+00 1.904552743984303076e+00 1.873598318421945574e+00 1.845946211622255362e+00 1.833666450554572336e+00 1.842760110639064308e+00 1.868821447889875254e+00 1.902798043620476776e+00 1.937205913036365024e+00 1.963971520443054120e+00 1.976998725069233576e+00 1.982644530309660258e+00 1.996103677118999276e+00 2.023603650619113292e+00 2.057092819475780932e+00 2.084116996941635325e+00 2.097390079667375229e+00 2.101581684992656740e+00 2.110727937388589659e+00 2.132614735859998056e+00 2.158417302436423935e+00 2.171771236359663959e+00 2.166379683917212251e+00 2.150704447093303884e+00 2.137806819343698983e+00 2.135940350142796706e+00 2.145796165852000392e+00 2.162123113557245624e+00 2.178551142839475041e+00 2.192022055697957938e+00 2.203932574901454000e+00 2.216581168623927844e+00 2.228356445472949865e+00 2.236601934704401273e+00 2.244782425832288375e+00 2.261810674752534389e+00 2.293602227304826879e+00 2.336772584814204023e+00 2.380854582024099386e+00 2.414672772091475572e+00 2.431249039652942034e+00 2.431974710298471010e+00 2.426483052935964224e+00 2.426941580130366205e+00 2.439595371339889240e+00 2.456647340180019512e+00 2.459157296492050726e+00 2.433717025441964665e+00 2.385510032922934176e+00 2.333431756618324471e+00 2.293575149403392466e+00 2.269846957746554761e+00 2.261055966301616316e+00 2.269846163390688343e+00 2.296546995246243839e+00 2.328230007438518712e+00 2.343668591206388818e+00 2.332653056066458674e+00 2.307787122136859104e+00 2.292802816610287842e+00 2.300362647841291519e+00 2.324812085600723055e+00 2.350606708097753295e+00 2.363147964491202124e+00 2.356691991344188608e+00 2.335958145280870646e+00 2.308480267742104353e+00 2.276593517700924885e+00 2.239811596560772777e+00 2.200107820357219524e+00 2.163386922291548498e+00 2.138570207577909166e+00 2.130476376266690508e+00
2.183243674993364802e+00 2.190132930822902058e+00 2.195893350908504349e+00 2.194009544707188564e+00 2.178082164014183864e+00 2.149555166719516741e+00 2.116185235564714606e+00 2.085125393760964396e+00 2.058908759683943934e+00 2.035804805954142704e+00 2.014471556564187527e+00 1.996651571636135714e+00 1.984789253012787302e+00 1.980450000935832122e+00 1.983443179557740743e+00 1.989683484507026812e+00 1.993677380206014593e+00 1.994242349334454101e+00 1.993733270836000937e+00 1.993346286840798509e+00 1.992529359055969618e+00 1.991296571528716752e+00 1.991390336181392939e+00 1.994695273445456163e+00 2.000749042116974685e+00 2.006411015319668145e+00 2.007570753068124603e+00 2.002662669509178706e+00 1.995099074214601975e+00 1.989272479292642171e+00 1.985289853899004697e+00 1.980661703337694979e+00 1.974626137558002537e+00 1.968082847952860037e+00 1.961320488158775355e+00 1.954099175198795946e+00 1.947180542628155209e+00 1.942210123428766755e+00 1.939623183642217530e+00 1.937909659149280595e+00 1.936155525223845153e+00 1.935775472176514356e+00 1.937762023164084191e+00 1.939883776877735944e+00 1.938380817441403003e+00 1.930714805454770477e+00 1.915368851347283297e+00 1.891287489787505827e+00 1.861326721892077041e+00 1.835646650305404304e+00 1.826908967828709818e+00 1.840093239505327993e+00 1.869399175071649655e+00 1.906403528750011178e+00 1.945595955375293062e+00 1.978784797245240146e+00 1.996535308466899306e+00 2.001879107232553245e+00 2.010087983655885147e+00 2.031010138027401268e+00 2.061143441102448737e+00 2.090477150591722566e+00 2.110582390061764180e+00 2.122275346586571132e+00 2.135940484588596533e+00 2.157808673124096632e+00 2.179535577866599017e+00 2.187139747131210843e+00 2.177608899068290249e+00 2.161560342645935329e+00 2.151694169574110305e+00 2.153861721016208541e+00 2.166875724003443082e+00 2.185679839283376502e+00 2.204148328952646896e+00 2.217904740304777356e+00 2.227728215182593452e+00 2.237844156657441186e+00 2.248972630030317887e+00 2.258337197613434100e+00 2.267243533637850472e+00 2.282922971706124127e+00 2.311091616229310919e+00 2.348358778960664583e+00 2.383538129523573801e+00 2.405409655370324362e+00 2.409313455467536613e+00 2.400314164533742911e+00 2.390591770632020108e+00 2.392695864087277080e+00 2.411146646794537052e+00 2.434281853193588141e+00 2.439278301464288035e+00 2.412794652182495447e+00 2.363605531532701143e+00 2.312432351527786700e+00 2.273057980463086380e+00 2.247397968129582146e+00 2.236398182006679392e+00 2.245083573932697529e+00 2.272131743843630147e+00 2.302592872649324995e+00 2.316499798867740267e+00 2.304886836764232783e+00 2.279617464423900675e+00 2.264650599061394765e+00 2.274109350920865413e+00 2.302112019251863817e+00 2.332136756363336616e+00 2.350422270508833122e+00 2.351892690977298361e+00 2.338941443059283198e+00 2.315835694807922174e+00 2.284678681617853702e+00 2.246703813572473507e+00 2.203780750478898653e+00 2.160586828884803801e+00 2.126861005100934232e+00 2.110868699977609175e+00
2.140961035154921532e+00 2.150078152930551045e+00 2.162605318505209429e+00 2.172270650249268797e+00 2.168976837796444901e+00 2.148924244936513794e+00 2.117296989076852043e+00 2.083362700921731925e+00 2.053932849882060818e+00 2.029447835106392706e+00 2.007532619456447787e+00 1.987942643867546488e+00 1.972803852718225226e+00 1.964817099739080586e+00 1.964520548794937316e+00 1.968261205562067628e+00 1.971262462795734915e+00 1.972497081712565770e+00 1.973448367489481381e+00 1.974294522205764846e+00 1.974399854509298891e+00 1.974142632636740391e+00 1.974706467862004100e+00 1.977019915538928529e+00 1.980620663803963843e+00 1.983251388470268051e+00 1.982418026031655067e+00 1.978460903870500998e+00 1.975008924516199915e+00 1.974248651104657748e+00 1.973660432846146673e+00 1.969653971259638148e+00 1.962245365266690245e+00 1.954165981907225680e+00 1.947194223813079939e+00 1.941323377786123849e+00 1.936367440492068770e+00 1.932766729953776519e+00 1.930399205463632750e+00 1.927691093808490130e+00 1.923756711971176259e+00 1.920439307259809603e+00 1.919902779687488348e+00 1.921338408882951709e+00 1.921461140312334059e+00 1.916653135432418775e+00 1.903721396355169571e+00 1.880945606998370767e+00 1.852019760020922945e+00 1.828329948656229442e+00 1.822506406698908288e+00 1.838215327240708463e+00 1.869076828442278515e+00 1.907548151040695084e+00 1.949241999902373124e+00 1.986641188149353532e+00 2.009371680221990530e+00 2.017126461576241425e+00 2.022438162291350316e+00 2.036835056515743592e+00 2.062144065067299969e+00 2.093284300730500647e+00 2.122850021716544244e+00 2.147068747624529372e+00 2.168595119889127787e+00 2.189183814382303250e+00 2.203068585051863870e+00 2.202740147703850404e+00 2.189552602690164385e+00 2.174159649402913175e+00 2.166811384075995495e+00 2.171111338676225522e+00 2.185761627416941355e+00 2.207069317951645626e+00 2.228895975151543585e+00 2.245077997835562833e+00 2.255146907592860295e+00 2.263551982111381200e+00 2.272339591962220684e+00 2.280284961682708111e+00 2.288507725742694898e+00 2.301618764258916983e+00 2.322908155596262070e+00 2.349442877187059686e+00 2.372233751504192689e+00 2.381636148318785118e+00 2.374547899695849118e+00 2.358637803788377951e+00 2.348170830423844890e+00 2.355111276502508844e+00 2.380770042441936685e+00 2.409610106286605546e+00 2.416861250498380187e+00 2.390837896068510382e+00 2.343459496014156151e+00 2.295558790567639562e+00 2.257760388568354593e+00 2.230369339520567706e+00 2.216198144082650145e+00 2.222063385019881654e+00 2.246136167836318087e+00 2.273367530960538563e+00 2.285810151917048394e+00 2.275496687361913128e+00 2.252412681238300962e+00 2.238759182200115383e+00 2.249080050805034148e+00 2.278224127035048063e+00 2.309982432519596784e+00 2.332047385261430072e+00 2.340314536763279829e+00 2.334358835959753353e+00 2.314500193050373689e+00 2.283064566771968007e+00 2.244153609758118506e+00 2.200386755197524025e+00 2.154943841000656946e+00 2.116791994395788912e+00 2.095879128783002088e+00
2.102856551351846015e+00 2.115698277613251577e+00 2.136366285023248324e+00 2.157462419840570966e+00 2.165604267697319951e+00 2.153048259290565536e+00 2.123028260024515390e+00 2.086627390393543280e+00 2.054402515629627946e+00 2.028835043105772673e+00 2.006693761197447134e+00 1.985513532393881730e+00 1.966386635062248978e+00 1.953157523249637872e+00 1.947999927931929554e+00 1.948215568560754063e+00 1.949725956835505203e+00 1.951624309500200827e+00 1.954410279632356806e+00 1.957036760534792252e+00 1.958510724411059112e+00 1.959211396441099762e+00 1.959510182380516774e+00 1.959570081007407261e+00 1.959862443523030295e+00 1.960156022111858576e+00 1.959321265502505849e+00 1.957519760113034080e+00 1.956835305386065205e+00 1.957890873355913275e+00 1.957815196899362231e+00 1.953662099384195106e+00 1.946447689463171038e+00 1.939627768509375461e+00 1.934504474681556285e+00 1.929606117825410916e+00 1.923988447570905036e+00 1.918861120400249032e+00 1.915333357568095085e+00 1.912277876135542343e+00 1.908419285244655317e+00 1.905021492802141836e+00 1.904214004337765775e+00 1.906025058936804184e+00 1.907957809460247622e+00 1.905818715195668700e+00 1.894756639031906831e+00 1.872310981040079536e+00 1.843563338243200622e+00 1.821648644990088606e+00 1.818855957174125404e+00 1.837271437296294385e+00 1.869962288147546836e+00 1.909192095184433002e+00 1.950124522531739846e+00 1.987207051417087200e+00 2.013237869345138265e+00 2.026530233187747054e+00 2.034355890389488941e+00 2.046015777816695635e+00 2.066972559699349343e+00 2.098417691843869726e+00 2.136514182162188469e+00 2.173618384649391277e+00 2.202866561737081064e+00 2.220508846473733922e+00 2.224928210479376389e+00 2.216778566670062567e+00 2.201494781362903108e+00 2.188200863757469250e+00 2.183653868833620226e+00 2.189676398818973357e+00 2.205874200385240513e+00 2.230076165824551815e+00 2.255822107501176621e+00 2.275185593088286939e+00 2.286107945696337573e+00 2.292282761430938010e+00 2.296713929792903119e+00 2.300448853927863802e+00 2.305013918087368108e+00 2.312035870409343996e+00 2.322066937479673854e+00 2.333734916800346060e+00 2.342266859957772063e+00 2.340822312732119936e+00 2.327392067380821050e+00 2.310559515072757364e+00 2.304898005098860114e+00 2.320347859890985021e+00 2.354183210235817114e+00 2.388136272657772619e+00 2.397853013612731843e+00 2.373478495085649342e+00 2.328004265353338376e+00 2.281580345639523610e+00 2.243395967485261266e+00 2.213768358915131351e+00 2.196648198755819070e+00 2.199072043114401076e+00 2.218911648075152510e+00 2.242384774747513188e+00 2.253992741072920580e+00 2.246377432085498782e+00 2.227195715648853103e+00 2.215914230688859732e+00 2.226421864566860531e+00 2.254848209495453393e+00 2.286959077531464324e+00 2.312135443348235952e+00 2.325923012272802737e+00 2.324662462225976611e+00 2.306202901065555810e+00 2.274308927806627523e+00 2.235572012417193832e+00 2.193013562841158226e+00 2.148673123775715510e+00 2.110314387227493427e+00 2.087785577889440969e+00
2.072699387967319673e+00 2.088210884730759886e+00 2.115493954338407701e+00 2.145196087953149977e+00 2.160774941635942969e+00 2.152025054366300871e+00 2.122301313909157550e+00 2.085343843188371959e+00 2.054076346971406064e+00 2.030827368403842037e+00 2.010382432037063793e+00 1.988152935344952077e+00 1.964391335865680155e+00 1.944504746841822174e+00 1.933549088391532056e+00 1.930478650534279694e+00 1.931086411482888288e+00 1.933585878450442497e+00 1.937699948085362056e+00 1.941919141114211378e+00 1.944783956952727655e+00 1.946129791935751197e+00 1.945901322455900306e+00 1.944296613211829339e+00 1.942669371289908575e+00 1.942143596943882278e+00 1.942284950874041405e+00 1.942400321237860439e+00 1.942727186513609983e+00 1.943003836744816137e+00 1.941353762817906059e+00 1.936470202195228030e+00 1.930262965306821954e+00 1.925862111242705010e+00 1.922881198335697484e+00 1.917847472739787840e+00 1.909743206454558084e+00 1.901872993675326029e+00 1.897336094319021615e+00 1.895431000238537944e+00 1.894071856983174484e+00 1.893193555894819191e+00 1.893879949635610016e+00 1.896127146904182714e+00 1.898141714564387295e+00 1.895998929344619111e+00 1.884313715378390874e+00 1.860725031232030258e+00 1.832003918310443957e+00 1.812533146334202261e+00 1.813548507250043240e+00 1.835474358760548430e+00 1.870585487582432815e+00 1.909942577013337583e+00 1.947800816526464862e+00 1.981737130044865847e+00 2.009964491669025577e+00 2.030969227917165387e+00 2.046060305397301882e+00 2.059890577327570416e+00 2.079432648970177766e+00 2.111415483688502626e+00 2.155637204082331504e+00 2.201179013728788103e+00 2.233651260110787184e+00 2.246339945020535911e+00 2.242221183316545741e+00 2.228294655551664061e+00 2.212388418896323650e+00 2.201875333347728780e+00 2.200960159055211030e+00 2.210527801215194543e+00 2.230310108498247512e+00 2.257833410100469340e+00 2.285969591757023522e+00 2.306338740250609032e+00 2.316149178954903576e+00 2.318412357594865192e+00 2.316836663647020345e+00 2.313971811037352833e+00 2.311471522062169548e+00 2.309172908226634569e+00 2.306270551251085710e+00 2.303124733936363189e+00 2.298882633862386005e+00 2.289923280559205576e+00 2.275735174438174191e+00 2.264441560234409234e+00 2.268076925942178246e+00 2.292809672630999884e+00 2.332794342296809376e+00 2.369942552134161051e+00 2.382587477406050702e+00 2.361680832826533738e+00 2.318223736084792819e+00 2.270703445103327223e+00 2.229253276195223510e+00 2.196569720139175619e+00 2.177279980316098928e+00 2.176931543464949215e+00 2.192722998558558345e+00 2.212713026215058942e+00 2.223811224781484519e+00 2.219072862319931616e+00 2.204297299110737018e+00 2.196297197080273378e+00 2.207349497683365858e+00 2.234475418318129236e+00 2.266287134277328974e+00 2.293956533272522691e+00 2.311628941955899741e+00 2.312859235154821391e+00 2.295132163020460858e+00 2.264150910162190389e+00 2.227266373070411198e+00 2.186835952873057209e+00 2.144612429327192871e+00 2.107915566362719595e+00 2.085411843359497919e+00
2.052926969696531323e+00 2.067735569379297367e+00 2.097550927964349388e+00 2.131113085442454924e+00 2.148867894191639483e+00 2.139366856784779003e+00 2.108125684328648664e+00 2.072256325841395963e+00 2.045425644790679343e+00 2.027962447439568994e+00 2.012145214102574187e+00 1.991311723019204560e+00 1.964470300009784953e+00 1.938229886884903053e+00 1.921404544021432015e+00 1.915812158200752124e+00 1.916787742016401896e+00 1.920372407599841846e+00 1.925242489765590426e+00 1.930191001383227523e+00 1.933685228687896718e+00 1.935057716204207967e+00 1.934404981717083638e+00 1.932416693133315100e+00 1.930486277064207723e+00 1.929674798429586113e+00 1.929853696449163936e+00 1.930382177740787242e+00 1.930801389616064068e+00 1.930279723891376031e+00 1.927357746816821926e+00 1.921717539282809639e+00 1.915937528642641663e+00 1.912917571583366838e+00 1.911012321746520914e+00 1.905481646791236994e+00 1.895662632395108682e+00 1.886509449824928408e+00 1.882193690224637894e+00 1.881972688525413551e+00 1.883201480417310947e+00 1.885004243089063003e+00 1.887438507896487483e+00 1.889621539755663715e+00 1.889698696279946022e+00 1.884556548289021638e+00 1.869893985702072658e+00 1.844671470793331158e+00 1.816984513821541469e+00 1.800989527818148694e+00 1.806059576697105484e+00 1.831216445622533051e+00 1.867989162255384361e+00 1.906291548071881614e+00 1.940397322414535664e+00 1.971237775310574314e+00 2.001474770618744792e+00 2.029930345612969589e+00 2.053640517203460192e+00 2.073483693191024102e+00 2.096692463540032136e+00 2.132804894891076497e+00 2.182380742502863846e+00 2.231078295535837697e+00 2.261229706888698843e+00 2.267358023728681893e+00 2.256412368668730739e+00 2.238521711552234450e+00 2.222435059890560893e+00 2.214700972972741155e+00 2.218523545788006590e+00 2.233890179562927347e+00 2.258447730635993356e+00 2.287354783084036391e+00 2.313705002564567792e+00 2.331269009351242705e+00 2.337882182668447495e+00 2.335634607638621407e+00 2.327743402527913119e+00 2.316814105200298624e+00 2.304914670802396870e+00 2.292536236827101170e+00 2.279155850784866821e+00 2.265753047877053561e+00 2.253346175726997913e+00 2.240729844479218080e+00 2.229229132101778976e+00 2.226374841461111309e+00 2.240237965465409431e+00 2.272425687642393832e+00 2.315541639408517760e+00 2.353955055413807340e+00 2.369449998113557054e+00 2.352866214561136982e+00 2.311692992920733936e+00 2.262258621557649452e+00 2.216872180176863605e+00 2.181668690466071148e+00 2.161206807726089973e+00 2.158428711857134807e+00 2.170045663744382569e+00 2.186608543151295603e+00 2.197149796874041439e+00 2.194624654270464159e+00 2.183428803651525030e+00 2.178453653633299680e+00 2.190397307657656611e+00 2.216786930172364833e+00 2.248606945762960496e+00 2.278103065941462724e+00 2.297828316644724644e+00 2.299889434752367290e+00 2.282849870758698607e+00 2.253886961404144795e+00 2.219668615205169004e+00 2.181528225303386748e+00 2.141862649234142602e+00 2.108151296882420311e+00 2.086864984458592254e+00
2.042863940417465773e+00 2.053564865033968623e+00 2.081020372915504346e+00 2.113107393863410621e+00 2.128665014118545695e+00 2.116207932089761101e+00 2.083531133934918067e+00 2.049674924291478018e+00 2.027400338013211289e+00 2.015279939656364316e+00 2.004632648311916565e+00 1.987392646891862569e+00 1.960507610421154734e+00 1.930425733670097177e+00 1.909185742759841986e+00 1.902094223895531844e+00 1.904476541532764466e+00 1.909741378441693449e+00 1.915104249659271396e+00 1.919962744577376590e+00 1.923316698950107595e+00 1.924424674461669538e+00 1.923684218081158637e+00 1.922052573027096756e+00 1.920284243746503972e+00 1.918656764172751217e+00 1.917365762007811947e+00 1.916906370845049334e+00 1.917442382195211570e+00 1.917675948568576372e+00 1.915199328294999503e+00 1.909325061458204464e+00 1.903117460280615791e+00 1.899963674915344569e+00 1.898185890081126814e+00 1.892970960820708815e+00 1.883845412420049881e+00 1.875735982345956954e+00 1.872378731769381410e+00 1.872831512607026960e+00 1.874862939388762140e+00 1.878043204893596885e+00 1.881871551677788634e+00 1.883921743208910371e+00 1.881542049833401897e+00 1.872700821535201232e+00 1.855051956545816338e+00 1.829001364156819243e+00 1.803011777545051597e+00 1.790211509070147144e+00 1.798185830019305431e+00 1.824759671553615625e+00 1.860911194350930664e+00 1.896542148528289617e+00 1.927218796106969778e+00 1.956112104854013545e+00 1.987595493496713273e+00 2.020641126627864548e+00 2.051213740792038998e+00 2.078888251782655239e+00 2.109998129609074624e+00 2.153596155461396044e+00 2.208728761507297911e+00 2.258501368470758219e+00 2.284952096229275309e+00 2.285273931500694466e+00 2.269036055725874412e+00 2.247848650199733456e+00 2.231357236868378724e+00 2.226389396283244615e+00 2.235743110739083050e+00 2.257372172332538174e+00 2.284967450023877689e+00 2.311182755625458718e+00 2.331271980172796798e+00 2.343113237307654639e+00 2.345787381670492167e+00 2.339779277669108204e+00 2.326390824872040852e+00 2.307460869047253560e+00 2.286376792474998254e+00 2.265973418154466401e+00 2.246418192069907782e+00 2.227912314445460673e+00 2.211661602409574989e+00 2.198097078942384819e+00 2.190326004364179902e+00 2.195616285384412336e+00 2.218418636786666287e+00 2.256369939011180215e+00 2.301592751915348956e+00 2.340806645296602539e+00 2.357872162250333581e+00 2.343523774751306021e+00 2.303371970665867519e+00 2.252659567352267800e+00 2.205309596000256445e+00 2.169383763752009031e+00 2.148478234516989271e+00 2.143380779457544349e+00 2.151169578367506219e+00 2.165044881166458879e+00 2.175570761760372118e+00 2.174952052389961032e+00 2.166138285349286097e+00 2.162731339093367566e+00 2.174725022147103726e+00 2.200479322041344776e+00 2.232621807603384134e+00 2.263479172470721501e+00 2.283991784592349639e+00 2.285720621611285530e+00 2.268798000652220370e+00 2.241559351230159258e+00 2.209987780244612843e+00 2.174898004640037463e+00 2.139419630146570217e+00 2.110576263342816894e+00 2.091544362403201962e+00
2.037152424753265301e+00 2.042565914794882698e+00 2.064218129357219489e+00 2.090645679220119568e+00 2.101882705993230793e+00 2.087681461898471369e+00 2.056169734794634607e+00 2.025137650060267802e+00 2.005399514116988247e+00 1.995304242210762968e+00 1.987290376273326054e+00 1.973141507690494567e+00 1.948003427578685276e+00 1.917264243943304081e+00 1.894444089710208168e+00 1.887215393452520207e+00 1.891146499684406290e+00 1.897782139797454803e+00 1.903221900446784964e+00 1.907522590830287967e+00 1.910490589951034934e+00 1.911572582033753465e+00 1.911243452063777770e+00 1.910309771612984653e+00 1.908809725473505692e+00 1.906343748704340646e+00 1.903372949969589278e+00 1.901585584376041638e+00 1.902196792874327747e+00 1.903697015258630332e+00 1.902413849459555273e+00 1.896919318278335265e+00 1.890641229112118182e+00 1.887380467673950957e+00 1.885808859071365973e+00 1.881777972020227008e+00 1.874769282185080765e+00 1.868466670958391029e+00 1.865509550889167478e+00 1.865164696780817755e+00 1.866472362175839228e+00 1.870094191639666947e+00 1.875094001639887376e+00 1.877437924132391078e+00 1.873831365981574404e+00 1.863394327741635159e+00 1.845118651634345186e+00 1.819561901847248864e+00 1.794718420173105233e+00 1.783342204261738839e+00 1.792205438276320617e+00 1.817807862058185453e+00 1.850688961760990736e+00 1.882184875627942677e+00 1.909776819119245239e+00 1.936979031779998195e+00 1.967569581088856934e+00 2.001173188367227240e+00 2.035648088146542634e+00 2.070973229343640920e+00 2.110981294973220734e+00 2.161883386713165933e+00 2.221980963743685589e+00 2.274570039212454819e+00 2.301298175655455136e+00 2.299095087884293509e+00 2.278571692339824040e+00 2.253639193117762396e+00 2.236036703811486337e+00 2.233318588790268677e+00 2.247390832235122815e+00 2.273209261098482870e+00 2.300649414471192422e+00 2.321343840580019968e+00 2.333456667323098088e+00 2.338578379469818280e+00 2.337010088576557454e+00 2.327846966814451246e+00 2.310367210651488534e+00 2.285806184309534750e+00 2.259008650134200380e+00 2.234527449593427750e+00 2.212435360012550589e+00 2.191700676549045657e+00 2.173593386326930776e+00 2.160516658799244816e+00 2.157376507501066243e+00 2.170685767692395185e+00 2.201390218338930005e+00 2.244126831790847376e+00 2.291308232087104102e+00 2.330893220167666424e+00 2.346892242484272195e+00 2.330881887753488257e+00 2.289872538138030045e+00 2.239313351733426494e+00 2.192539535662295425e+00 2.156816143536811392e+00 2.134963947662121608e+00 2.127922964439567188e+00 2.133972097132602386e+00 2.147456003096641197e+00 2.159050966458972098e+00 2.160178021919188396e+00 2.152825579981824333e+00 2.149801704296352423e+00 2.160892590811202663e+00 2.185378864097633933e+00 2.217331227143762185e+00 2.249307806743735316e+00 2.270838889144526362e+00 2.272580972487275197e+00 2.255692807881513495e+00 2.229840055304469715e+00 2.201325587437375386e+00 2.170918924452481136e+00 2.141350344074136380e+00 2.117762514570476373e+00 2.099798288257865408e+00
2.027952037924673157e+00 2.029904650229406027e+00 2.046045332050471899e+00 2.065942480756376654e+00 2.072868408631551418e+00 2.058855762508267073e+00 2.030696476251351523e+00 2.002877488118982363e+00 1.984241250531692646e+00 1.973622479090356041e+00 1.965080079490460818e+00 1.951547707112660124e+00 1.928127199262759106e+00 1.899316294263342808e+00 1.877956516544108556e+00 1.871786837631606470e+00 1.876575149359187789e+00 1.883660670938026360e+00 1.889004955302574729e+00 1.893002820311302958e+00 1.895886792551027211e+00 1.897288643246515694e+00 1.897671077571314591e+00 1.897606055636896105e+00 1.896726898659842231e+00 1.894326242480990352e+00 1.890834176037917480e+00 1.888233988923512907e+00 1.888198007878156837e+00 1.889393704631059823e+00 1.888071214416060961e+00 1.883087185969223309e+00 1.878133695614883525e+00 1.876368565762416729e+00 1.875927697598576582e+00 1.873124184905542666e+00 1.867474859749186589e+00 1.861696795101131396e+00 1.857920158492670115e+00 1.856093404344222098e+00 1.856425554888439855e+00 1.860148108803716394e+00 1.865800686465941993e+00 1.868617021644284115e+00 1.865559470139109610e+00 1.856500109845524715e+00 1.840234088494349995e+00 1.816183972806765468e+00 1.791808047845522278e+00 1.780437136854686742e+00 1.788789891234670693e+00 1.811990320212296002e+00 1.840305674017026938e+00 1.867093293129054032e+00 1.891406770507811252e+00 1.915968293322093174e+00 1.943546935958891719e+00 1.975071537209375894e+00 2.011099483360099249e+00 2.052318583304277411e+00 2.099559864202948489e+00 2.155694097987402635e+00 2.219894667747691841e+00 2.277884322845233012e+00 2.309426678015088719e+00 2.307359471833732023e+00 2.282296043041562417e+00 2.252240092276986516e+00 2.232176459824268377e+00 2.229929658953173188e+00 2.245701755179823067e+00 2.271850204374117332e+00 2.296544799725694475e+00 2.311942192932417317e+00 2.317803989864110292e+00 2.317161308592748270e+00 2.311358713113964125e+00 2.299551620163648114e+00 2.280290612459367594e+00 2.254326631599026243e+00 2.226292292087612257e+00 2.200621602139216648e+00 2.177568115848823815e+00 2.156149396382274652e+00 2.138001784557385765e+00 2.127315937081339925e+00 2.130505702588242567e+00 2.152580622883629946e+00 2.190671269757761497e+00 2.237067853371295989e+00 2.285170583612746498e+00 2.323888667753186699e+00 2.336775412725320855e+00 2.317140139484501038e+00 2.275049794730131580e+00 2.226064735349882806e+00 2.180864862266366444e+00 2.144395936732010011e+00 2.119868441667610348e+00 2.110843828026200519e+00 2.117238864203627280e+00 2.132366593241946440e+00 2.145119107290998084e+00 2.146563579598925298e+00 2.139362277329806883e+00 2.136551379191146793e+00 2.147426013405789202e+00 2.171161817069011235e+00 2.203018226350919040e+00 2.236810199646171782e+00 2.261353883747481586e+00 2.265539300088762253e+00 2.250274049560293310e+00 2.226407492065766380e+00 2.201354664395766214e+00 2.176057677167655413e+00 2.151672042310000421e+00 2.130517181663521775e+00 2.109888921275740792e+00
2.011797333441703195e+00 2.013595658916061737e+00 2.027239803778346339e+00 2.042427908604721232e+00 2.045799312221459054e+00 2.032153199346420358e+00 2.006958738537082176e+00 1.981673253691388359e+00 1.963763001565833388e+00 1.951998739800277383e+00 1.941260514164050655e+00 1.926620888025511125e+00 1.904992120379248366e+00 1.880215431202442389e+00 1.862629151271895100e+00 1.858285523785954130e+00 1.863351430285040022e+00 1.870458083073824884e+00 1.876149206845965978e+00 1.880587309496223547e+00 1.883781419331768792e+00 1.885452440962855025e+00 1.886239842575538450e+00 1.886756024518450037e+00 1.886547311180621911e+00 1.884832700934189642e+00 1.881831126419422517e+00 1.878973328851515356e+00 1.877447365511034860e+00 1.876292495983687747e+00 1.873222947278060602e+00 1.868611570891943074e+00 1.866071593381794624e+00 1.867014592271565521e+00 1.868144315021959656e+00 1.865749451702993778e+00 1.859684528580313856e+00 1.852782740526255578e+00 1.847613857342712329e+00 1.844809266888029375e+00 1.844779757145338817e+00 1.848301216114786261e+00 1.853655861894980550e+00 1.856769541737427698e+00 1.855533631765159397e+00 1.849606667885920430e+00 1.836380434957759711e+00 1.814124223761566013e+00 1.790360691455892717e+00 1.779067494046537190e+00 1.786789673520143840e+00 1.807753308725644992e+00 1.832413495674486414e+00 1.855470722283172336e+00 1.876503520702129446e+00 1.897736299607445609e+00 1.922087183181765191e+00 1.951702154705547976e+00 1.988249557402873569e+00 2.032529522104964403e+00 2.083935105923274023e+00 2.143425635261726470e+00 2.210961749254790831e+00 2.274343019586584802e+00 2.311030276681224294e+00 2.308927083123534896e+00 2.278585117486712885e+00 2.242673872794695100e+00 2.218994935967724125e+00 2.214568026219893682e+00 2.227805549160011722e+00 2.250110153552106418e+00 2.270325458523268836e+00 2.281990913019853906e+00 2.284887684487273862e+00 2.281205319051721858e+00 2.272679960455488590e+00 2.259846323380159561e+00 2.242060933341291751e+00 2.218964759958076183e+00 2.192247406358543316e+00 2.165153246043860946e+00 2.140504701806152710e+00 2.119824734451253079e+00 2.104699189560273798e+00 2.099137320216728497e+00 2.109959409455003154e+00 2.140811631105126622e+00 2.185599520268020957e+00 2.234662231130507326e+00 2.282472398805382774e+00 2.319380540162827575e+00 2.329349740332180563e+00 2.307340604834074327e+00 2.265366803963266396e+00 2.218332593715533818e+00 2.174221099148313296e+00 2.135860506963212835e+00 2.107282798404811253e+00 2.095299928314443783e+00 2.101752747560925005e+00 2.118276696661827607e+00 2.130967453708662696e+00 2.130732270888426427e+00 2.122400276167097477e+00 2.120318276594696627e+00 2.132920954404460279e+00 2.158138331669062993e+00 2.191735775566131750e+00 2.229136541619219702e+00 2.259159384863382414e+00 2.268722913655586648e+00 2.257285223565332899e+00 2.235841936225218429e+00 2.212744293589141265e+00 2.189522312498344725e+00 2.166151424364437528e+00 2.142762008434466292e+00 2.116296877117378461e+00
1.992364035940447087e+00 1.996019137010283773e+00 2.008737283181310840e+00 2.020202466488226101e+00 2.020314026647701322e+00 2.006546564127978272e+00 1.983309460075049380e+00 1.959704735495486405e+00 1.942401980502248771e+00 1.929912550376472247e+00 1.917370662614685362e+00 1.901929212515185430e+00 1.882651355599279430e+00 1.862747089631691999e+00 1.849685699808026884e+00 1.847629523391172146e+00 1.853296932435398503e+00 1.860807695849185706e+00 1.867271677469589886e+00 1.872408103374220145e+00 1.875756684432353882e+00 1.877033327133399432e+00 1.877289954696436336e+00 1.877571522063540055e+00 1.877493362136265276e+00 1.876241655868731595e+00 1.873951180115992265e+00 1.871274391459141651e+00 1.868307757738014940e+00 1.864413543451806099e+00 1.859433842245724389e+00 1.855368796499714312e+00 1.855043583257335982e+00 1.857890681653697529e+00 1.859576384224145729e+00 1.856596003030506203e+00 1.849410179766594275e+00 1.841425517263445721e+00 1.835725341979547842e+00 1.833117892822088812e+00 1.833404479324176162e+00 1.836437032201991171e+00 1.840780758946439999e+00 1.843925076486089942e+00 1.844514507796437330e+00 1.841119452955149338e+00 1.829813211464275557e+00 1.808947556518322397e+00 1.786693419894286539e+00 1.776662044271971386e+00 1.784367812356306260e+00 1.803957355676400365e+00 1.826973740296936377e+00 1.848589524130800577e+00 1.867749897841498807e+00 1.886668802801437561e+00 1.909382445368708936e+00 1.938685379637493877e+00 1.975509972373812984e+00 2.020099862029306692e+00 2.072384992437569462e+00 2.133302827561286641e+00 2.202475950769887891e+00 2.268280962043217386e+00 2.307055155714073713e+00 2.303627285875537556e+00 2.268604226918293332e+00 2.227776731393227294e+00 2.199883786252366136e+00 2.190716045555739733e+00 2.198306084822359896e+00 2.214609133495986981e+00 2.229382931961795933e+00 2.237330221422154430e+00 2.238561929511740711e+00 2.234337973094066232e+00 2.225878490065864579e+00 2.214932973708628960e+00 2.202336981633503221e+00 2.185983681178152338e+00 2.162566050450968280e+00 2.133428100493257151e+00 2.105759427614899870e+00 2.085761302364336878e+00 2.075058647732753059e+00 2.075628101905871326e+00 2.093362788649832495e+00 2.131313817497495933e+00 2.181744971817765055e+00 2.233291538266357179e+00 2.280525127732678126e+00 2.315416290996412663e+00 2.323622811197607163e+00 2.301192811254711312e+00 2.260155298346144370e+00 2.214555171218307805e+00 2.171052586296120079e+00 2.131062783876246591e+00 2.098610894149376627e+00 2.082580802594029556e+00 2.086940968908233884e+00 2.102854902537843351e+00 2.114309861513176791e+00 2.112213498628624730e+00 2.103586637842090212e+00 2.103779217277642388e+00 2.120085664906917078e+00 2.149066163093525716e+00 2.186373593236725199e+00 2.228403637330869991e+00 2.264507153817340690e+00 2.280520532687979607e+00 2.273880683851658091e+00 2.254094779261090586e+00 2.229555069125749078e+00 2.203084140788823753e+00 2.175406863744013819e+00 2.146454650260440911e+00 2.114331914963811787e+00
1.974829039799267161e+00 1.979820068685060441e+00 1.990372384986722309e+00 1.997433681787689874e+00 1.994700752677706745e+00 1.981594218484041825e+00 1.960728753509741074e+00 1.938658727964255535e+00 1.921674441606415984e+00 1.908987252572229565e+00 1.896150646861394229e+00 1.881089475088641327e+00 1.863882540335622950e+00 1.847487677773723469e+00 1.837738556320975603e+00 1.837713457854848409e+00 1.844496398871187104e+00 1.852912077355060694e+00 1.860161872216941070e+00 1.865659588680717018e+00 1.868637011659359803e+00 1.868728971899422664e+00 1.867484806061865399e+00 1.866648492011413030e+00 1.865998147870603585e+00 1.864712619544897532e+00 1.863055507802048094e+00 1.861079235832468814e+00 1.857785825934461732e+00 1.852775209196039441e+00 1.847476109657053334e+00 1.844386664344021654e+00 1.844943852356839331e+00 1.847480983135028065e+00 1.848156397325664724e+00 1.844487930343987170e+00 1.837416866706983898e+00 1.830213421592676859e+00 1.825598831412329037e+00 1.824073423402600813e+00 1.824906570707640840e+00 1.827370802632074742e+00 1.830487219277350253e+00 1.832947056743017278e+00 1.833511998735450232e+00 1.829791890907194185e+00 1.818001826751794336e+00 1.798179073670458150e+00 1.779004407509824137e+00 1.771963769659256283e+00 1.780453036282894752e+00 1.799253751646169963e+00 1.822056605507013982e+00 1.844471555714931377e+00 1.864205366206729053e+00 1.883105905088581000e+00 1.905936942030143966e+00 1.935633448616222108e+00 1.972190404952109510e+00 2.015502616406397607e+00 2.066731080105007390e+00 2.127201668074601315e+00 2.195434374438337333e+00 2.260244313406576833e+00 2.298852287889669554e+00 2.294663141193690858e+00 2.257110326326877470e+00 2.212358540339070867e+00 2.178911387484155693e+00 2.162823394057991955e+00 2.164030387003907929e+00 2.175077024833014239e+00 2.184250980546686538e+00 2.186275870534070354e+00 2.183720071733256773e+00 2.179323135915308907e+00 2.173542350648919985e+00 2.167893457895012865e+00 2.164095225572663761e+00 2.158321245860459925e+00 2.141913010744373125e+00 2.112866558917388282e+00 2.081555196783896555e+00 2.059939302055946886e+00 2.051486052499022605e+00 2.056046937692413312e+00 2.077523491394715816e+00 2.118943953660203938e+00 2.172963015879417092e+00 2.227171294739742624e+00 2.274701306327352235e+00 2.308134244744676877e+00 2.315307489854067313e+00 2.293195424638716062e+00 2.253136594294862238e+00 2.208660312232521239e+00 2.166046097056948838e+00 2.125707491929849979e+00 2.090782204350180251e+00 2.070656369080681625e+00 2.071160900094091151e+00 2.084380912514861350e+00 2.093875557612387972e+00 2.091355440535477506e+00 2.085256044641587092e+00 2.090265104335085944e+00 2.111928038127631524e+00 2.145865042272772527e+00 2.187278920876939203e+00 2.232621655470392152e+00 2.272304059246558428e+00 2.292844685748570921e+00 2.290058362274809856e+00 2.270729781496903410e+00 2.242421552475064583e+00 2.209675259456066687e+00 2.175481180103102208e+00 2.141024446444398155e+00 2.105719365996482129e+00
1.961009223109845934e+00 1.965579126095026608e+00 1.972274601407765893e+00 1.974534768587618450e+00 1.969948474346594924e+00 1.958720790086523778e+00 1.940870154837204709e+00 1.920353057776457817e+00 1.903350201884508985e+00 1.890548492740906195e+00 1.878198549535712303e+00 1.863915626749689913e+00 1.847910210291574096e+00 1.833386687652135638e+00 1.825449337566753760e+00 1.826423657451485605e+00 1.833649712954346978e+00 1.842460687334579017e+00 1.850084530108626613e+00 1.855782216901633142e+00 1.858562570081900400e+00 1.857781318944813576e+00 1.855173943382749879e+00 1.853037229600416058e+00 1.851482307005769323e+00 1.849885996061704674e+00 1.848662187162355419e+00 1.847535983038590013e+00 1.845018582765748594e+00 1.840925052715329580e+00 1.837056099714116320e+00 1.835141442988783789e+00 1.835337721159076230e+00 1.836136521591473336e+00 1.835373761173451745e+00 1.831925565811026946e+00 1.826669250907855480e+00 1.821789743098107595e+00 1.818969135502980228e+00 1.818417680521263513e+00 1.819493340045274854e+00 1.821395220538618354e+00 1.823159596626804380e+00 1.823647823492554165e+00 1.821486725652692762e+00 1.814492367938442818e+00 1.800757183115057725e+00 1.782682409564775750e+00 1.768391913502278090e+00 1.765759368695126952e+00 1.775680775282972634e+00 1.794017212372670755e+00 1.817064292305328621e+00 1.841342981739391371e+00 1.863538970291445107e+00 1.884373264285645444e+00 1.907941071945600031e+00 1.936948026872101547e+00 1.971824038018500147e+00 2.013384247744322231e+00 2.063504422976287334e+00 2.122576456609679418e+00 2.187753701761000258e+00 2.249737721803851898e+00 2.288647243005036191e+00 2.286605131596291862e+00 2.249292189970820477e+00 2.200751001437072141e+00 2.159769680400473568e+00 2.135007210284890267e+00 2.129596366681353992e+00 2.136012149606926425e+00 2.139558213620365024e+00 2.134416922798173299e+00 2.126730058952274849e+00 2.122251836832760752e+00 2.120879188852405228e+00 2.122648784108101427e+00 2.129082421830323923e+00 2.135394358672584314e+00 2.129052299400548520e+00 2.103545696201684745e+00 2.069438918626803847e+00 2.043985640191381403e+00 2.034587486686938007e+00 2.039996557263064947e+00 2.061289865204910310e+00 2.101327693603227686e+00 2.155165144353076823e+00 2.211298707775358974e+00 2.260746444151725765e+00 2.294613720808948987e+00 2.301779984693926639e+00 2.280238966558696845e+00 2.241337622358801518e+00 2.198483398885524132e+00 2.157453646321589424e+00 2.117843977481868034e+00 2.081952241558123085e+00 2.058831703610261687e+00 2.055385389380798955e+00 2.064976951362116342e+00 2.072068516396303295e+00 2.070139206858631287e+00 2.068441659692778156e+00 2.079532585523575339e+00 2.106737185800222179e+00 2.145346861091625534e+00 2.190026058861487712e+00 2.236157656195514321e+00 2.275219468679533286e+00 2.296420386505251710e+00 2.295579002447598160e+00 2.276640250630346696e+00 2.245682213911821101e+00 2.208608918862024595e+00 2.170463264830907679e+00 2.133236578357261770e+00 2.096704247620245987e+00
1.950174988088470673e+00 1.953181767499727828e+00 1.955370834751703590e+00 1.952792071786300543e+00 1.946200448046865317e+00 1.935990704772718285e+00 1.920165206813847503e+00 1.900918047002177147e+00 1.884054411854710898e+00 1.871070672216472275e+00 1.858878146860538205e+00 1.845194621679205005e+00 1.830759630782788694e+00 1.818913093109978618e+00 1.813197525687109124e+00 1.814405048112447183e+00 1.820310493332842228e+00 1.827730570632542406e+00 1.834816279763470170e+00 1.841002226555294108e+00 1.844933389258734291e+00 1.845189133036201357e+00 1.842881530785733801e+00 1.840293207364620987e+00 1.838077594899373057e+00 1.836143377284092937e+00 1.834939401241118428e+00 1.834115641031448973e+00 1.832431243302416357e+00 1.829814192963940878e+00 1.827465623838545383e+00 1.826157075515025596e+00 1.825720864872020455e+00 1.825454632441692260e+00 1.824458570127640344e+00 1.822167748689156763e+00 1.818914760044577417e+00 1.815793147551661324e+00 1.813740402749012715e+00 1.813068283112380552e+00 1.813716850984124385e+00 1.815010009410749303e+00 1.815358113857808764e+00 1.813067193351633133e+00 1.807036366451932885e+00 1.796485095338019811e+00 1.781866054624066331e+00 1.766996140611654331e+00 1.758209164397403823e+00 1.759826989900628469e+00 1.771206209613670257e+00 1.789472166541753229e+00 1.812890864470676711e+00 1.839010339005956451e+00 1.864220630133735845e+00 1.887698759408996896e+00 1.911536297235982618e+00 1.938077486768684965e+00 1.969843389057532423e+00 2.009839526662154263e+00 2.059783692148167589e+00 2.117618065239425640e+00 2.179045844290440126e+00 2.237803352538171531e+00 2.278105341165773901e+00 2.280780501388246950e+00 2.245989486479038622e+00 2.194172533530678315e+00 2.145190955779983977e+00 2.111285225818502198e+00 2.098126453825441828e+00 2.098366830374173375e+00 2.096478430526659054e+00 2.086736358376785283e+00 2.076697107330775616e+00 2.073399953027236453e+00 2.076536286651827101e+00 2.084956041000715743e+00 2.099564640444142150e+00 2.115708125416309038e+00 2.119400434647800147e+00 2.099880458841677289e+00 2.065061004559527902e+00 2.035228861173647097e+00 2.022642381196170014e+00 2.026773979109453450e+00 2.045721826875556815e+00 2.080942746968295065e+00 2.130438685462509696e+00 2.186103500654884790e+00 2.238159529696880146e+00 2.274858548822804138e+00 2.284109039588009704e+00 2.264453250522174166e+00 2.227839378552205929e+00 2.187482490284540226e+00 2.148177184661542949e+00 2.109176995866199888e+00 2.072943773128737455e+00 2.048169848358867284e+00 2.041731154035248519e+00 2.047900007001139500e+00 2.052783982293592935e+00 2.051834239390943893e+00 2.054420206443229979e+00 2.070418346061890791e+00 2.101110362233361339e+00 2.142270440602000114e+00 2.188430590789047336e+00 2.233058008103267600e+00 2.268118028475044401e+00 2.286836734224794832e+00 2.286892963725140060e+00 2.269805514680624192e+00 2.239527344382683083e+00 2.202567380555926491e+00 2.164944366437629331e+00 2.128101718312681800e+00 2.091284365470707840e+00
1.940731192457430643e+00 1.942260437668062778e+00 1.940317442452424102e+00 1.932516066238762598e+00 1.921683073601185843e+00 1.909059135327876078e+00 1.892771340514540990e+00 1.874424543670034859e+00 1.858451327422075305e+00 1.845632663274006546e+00 1.833497621204543737e+00 1.821076157411616769e+00 1.810235206877683911e+00 1.803628477932765151e+00 1.801936751494869871e+00 1.803691869136073933e+00 1.807279738882183295e+00 1.811908861708940943e+00 1.817672884697306257e+00 1.824662951803814437e+00 1.831073221667171902e+00 1.834250002528683199e+00 1.833980964754786225e+00 1.832041260199479549e+00 1.829638937720343916e+00 1.827339123343518779e+00 1.825644404629919393e+00 1.824385179023681580e+00 1.822814563400809718e+00 1.820614784366617167e+00 1.818123867239248348e+00 1.816063113226609183e+00 1.815233664917289325e+00 1.815655705471032721e+00 1.816118967213975699e+00 1.815156315970245071e+00 1.812420842596493831e+00 1.808857468015347969e+00 1.805613517754313557e+00 1.803470319793545773e+00 1.803041651394772904e+00 1.803797662567415028e+00 1.803338354299925061e+00 1.799351902745378595e+00 1.791331110355015799e+00 1.779915964857709199e+00 1.766814993432315184e+00 1.755705858229161365e+00 1.750991607968102048e+00 1.755091471242773871e+00 1.767390507694666990e+00 1.786088442912551422e+00 1.810039708356529609e+00 1.837380670365368562e+00 1.865023725060343640e+00 1.890830574323858926e+00 1.914380137113707914e+00 1.937760273871627748e+00 1.966240261213666685e+00 2.005180316621649972e+00 2.055624868213330458e+00 2.112858499003505308e+00 2.171254261284838893e+00 2.226993514038117183e+00 2.268066744670957480e+00 2.275080335072144688e+00 2.243479959052611328e+00 2.189787470834883454e+00 2.134691605348713495e+00 2.093252845614533619e+00 2.072129052261917792e+00 2.065055662398718628e+00 2.059008093435910514e+00 2.048774366127652069e+00 2.039748541112833102e+00 2.037774545165018658e+00 2.043403872137635080e+00 2.055949855026019790e+00 2.075867749716839405e+00 2.098882922059363221e+00 2.111133137302030782e+00 2.098754551780286803e+00 2.065324289657454848e+00 2.031319198657909997e+00 2.013899970660331551e+00 2.015675629915067102e+00 2.032645511648959236e+00 2.063108834019604210e+00 2.106282075414148025e+00 2.158283068223145307e+00 2.210928182198088177e+00 2.250771296927780885e+00 2.264081764772742922e+00 2.248823269959978610e+00 2.216532200954529852e+00 2.179302730446278424e+00 2.140865650588090752e+00 2.101244966189464769e+00 2.064408367695653279e+00 2.038695282640856199e+00 2.029668125721724614e+00 2.032328933339183408e+00 2.035494290968788977e+00 2.036407443816403706e+00 2.043395400011824847e+00 2.063243517196931442e+00 2.095204255675070737e+00 2.135754538172563777e+00 2.180194809733981387e+00 2.220950197296065021e+00 2.250558741555165554e+00 2.266129481793651479e+00 2.267387532978246689e+00 2.253522794981492439e+00 2.226295345386528624e+00 2.192543606877590534e+00 2.158391704606798633e+00 2.123901989867110984e+00 2.087721169156981915e+00
1.930134505814782742e+00 1.930775193607099371e+00 1.926149512626973870e+00 1.913725897659986241e+00 1.897016910149269542e+00 1.879192984654680210e+00 1.860741279911308332e+00 1.843353416373518794e+00 1.829064139739001060e+00 1.816985029444091460e+00 1.805431332892448504e+00 1.795328241036962424e+00 1.789381248449758433e+00 1.788876327043865011e+00 1.791808805533567917e+00 1.794968669139454853e+00 1.797232069100255902e+00 1.799749115777305342e+00 1.804421157566905354e+00 1.812151984263507654e+00 1.820908211707731983e+00 1.827014961612290822e+00 1.829039800662238591e+00 1.828142982033491126e+00 1.825723461890130128e+00 1.822720297985584104e+00 1.819914175587111771e+00 1.817709654751122894e+00 1.815722533221727719e+00 1.812902614658060241e+00 1.808814633940680539e+00 1.804986415737481975e+00 1.803863018151458109e+00 1.805849134627558916e+00 1.808267198484068583e+00 1.807821953584356489e+00 1.803685838969244504e+00 1.797694572677211333e+00 1.792016260594440746e+00 1.787932248523129708e+00 1.786367689317875929e+00 1.786953449163118268e+00 1.787057699762673035e+00 1.784106470132895916e+00 1.777649718549865643e+00 1.768488630179807952e+00 1.758184287407285940e+00 1.749765632281400141e+00 1.746866380596559631e+00 1.751799202737083228e+00 1.764727524562759386e+00 1.784278071942687838e+00 1.808640664912072760e+00 1.836009647160712799e+00 1.864539389720106133e+00 1.891709975339580074e+00 1.915010672584712914e+00 1.936166867974004724e+00 1.962429093745339248e+00 2.000609674334353549e+00 2.051119128384335077e+00 2.107929410631649958e+00 2.164888211977267218e+00 2.218710891990973266e+00 2.259020299284075328e+00 2.267573727386625215e+00 2.238108879859137090e+00 2.184155568470536490e+00 2.126061666325730570e+00 2.079973403603730731e+00 2.052417971525479334e+00 2.038909449275239094e+00 2.030309565249916570e+00 2.021488356682640930e+00 2.013966968251219569e+00 2.011797957472487575e+00 2.017508012962726305e+00 2.032342761617568883e+00 2.056460589584919951e+00 2.084894175401927896e+00 2.103722687493710719e+00 2.097429916117569348e+00 2.065938677311746741e+00 2.028624706802163669e+00 2.006616439130544105e+00 2.006514034356484011e+00 2.023216119237106092e+00 2.051133793288085982e+00 2.088541045155510645e+00 2.134498050978103301e+00 2.183785914735042244e+00 2.224048143623874374e+00 2.241417888195277097e+00 2.232518330148309360e+00 2.206533796556217730e+00 2.173149043398444391e+00 2.135276188265249786e+00 2.094653678064430480e+00 2.057215556406631229e+00 2.030424489111363417e+00 2.017715142097234793e+00 2.015464315929249572e+00 2.016887027528789567e+00 2.021130815298811001e+00 2.034049950411028984e+00 2.058365972659694343e+00 2.090704719958897950e+00 2.127805449621677170e+00 2.166881110364579754e+00 2.201777536764470078e+00 2.226499546350718006e+00 2.240314653161637359e+00 2.243213692856403707e+00 2.232211724957157362e+00 2.208041807713803095e+00 2.178116773988558297e+00 2.147903482952023602e+00 2.116035796770532773e+00 2.081232540383184837e+00
1.916230688319828124e+00 1.915940427491547471e+00 1.910406174066730411e+00 1.895974080852522503e+00 1.875419663899080991e+00 1.853687432142701041e+00 1.833999554917543851e+00 1.818096417451761981e+00 1.805637180298886868e+00 1.794381941735519126e+00 1.783557618912259946e+00 1.775510422315445869e+00 1.772997389163808890e+00 1.776125766777523207e+00 1.781888001762355955e+00 1.786789320427347283e+00 1.789794413539288254e+00 1.792341959672150598e+00 1.796846134455549304e+00 1.804758983203311073e+00 1.814352939866929582e+00 1.821845121259690892e+00 1.825300241211380126e+00 1.825254783557936689e+00 1.822657788254790301e+00 1.818383949210776729e+00 1.813803670292355896e+00 1.810382523292564327e+00 1.808053962612615972e+00 1.804768783350538364e+00 1.799375133907738178e+00 1.794205227735186092e+00 1.792865547574502560e+00 1.795730493962017782e+00 1.798815401624200394e+00 1.797555163582221560e+00 1.791243261933698649e+00 1.782885513576208725e+00 1.775502149790608275e+00 1.770436427961639581e+00 1.768422996109175971e+00 1.769297160111396705e+00 1.771000029639855144e+00 1.771036382455713376e+00 1.768131352681088675e+00 1.762064273298149075e+00 1.753851745056540512e+00 1.746608370422920053e+00 1.744493605058372587e+00 1.750263370324517620e+00 1.764232023208545552e+00 1.784662495167790519e+00 1.808734247912650250e+00 1.834540429041076059e+00 1.861873993881901335e+00 1.889151998418452383e+00 1.912850527583213722e+00 1.933780811868834881e+00 1.959423028968241276e+00 1.996659386517214863e+00 2.045553551385371538e+00 2.101083932157939760e+00 2.158484949452797341e+00 2.213021789648939475e+00 2.252316717890903597e+00 2.259518998144328883e+00 2.230235084065105511e+00 2.177038109206985261e+00 2.118656878865456505e+00 2.070082315801299977e+00 2.037150778941712481e+00 2.017829033974651853e+00 2.006927739121213250e+00 1.999137056515773114e+00 1.992569570790721611e+00 1.989908072925395288e+00 1.995426381098923896e+00 2.012308120088204255e+00 2.040386156947644469e+00 2.072828663434465035e+00 2.094724755510652514e+00 2.090621851998497149e+00 2.059920682130592873e+00 2.021607723219881692e+00 1.998409885495865623e+00 1.998794800190143661e+00 2.016693987486346984e+00 2.043553726179955454e+00 2.076281710450969431e+00 2.115254733206836324e+00 2.157884165842107738e+00 2.194905481594044083e+00 2.214448596699866378e+00 2.212009890816996283e+00 2.193330367708923312e+00 2.165174794062421970e+00 2.129909025869101580e+00 2.090553941013618910e+00 2.053596269421867682e+00 2.024884293506418409e+00 2.006489346825705233e+00 1.997591135559008801e+00 1.996901888658222379e+00 2.005336395795142668e+00 2.025056401585589860e+00 2.053790774343550396e+00 2.085195042817515443e+00 2.116341222874213113e+00 2.147729672817909830e+00 2.176888242297068121e+00 2.199528125505261222e+00 2.214376699844591290e+00 2.219561080892175298e+00 2.210638993841315347e+00 2.188685331652266974e+00 2.161552105619134245e+00 2.133603962632472317e+00 2.103027361976446130e+00 2.069736086841432066e+00
1.899692079225668850e+00 1.897858190522740518e+00 1.892363276884747592e+00 1.879141524704635469e+00 1.859383387330864945e+00 1.837953357516910913e+00 1.819180112036016483e+00 1.804699635851510164e+00 1.793027900911574601e+00 1.781733032530698591e+00 1.770994491768143941e+00 1.763701412711179861e+00 1.761949610369963892e+00 1.765181766890211223e+00 1.771083118785963695e+00 1.777285044129548464e+00 1.782508116808711129e+00 1.786792547612634507e+00 1.791607361894784756e+00 1.798576308981738592e+00 1.806937205616210740e+00 1.813984203580093491e+00 1.818047408304249046e+00 1.818833884103451037e+00 1.816190527141825939e+00 1.810675179287576819e+00 1.804422668778019379e+00 1.800028497347710976e+00 1.797694749100294143e+00 1.794603609506209452e+00 1.789119370044541135e+00 1.783847670245644723e+00 1.782413733849505633e+00 1.784717191782441148e+00 1.786581997413809297e+00 1.783942002065927124e+00 1.776856535007174109e+00 1.768571590301040164e+00 1.761724635186741494e+00 1.757218584493107638e+00 1.755576198021511658e+00 1.756930206191277266e+00 1.759994053323429952e+00 1.762393189387972736e+00 1.761825738622814663e+00 1.757080393123029438e+00 1.749300664476412415e+00 1.742661392631178252e+00 1.742177155153579626e+00 1.750192420428114071e+00 1.765865261237829387e+00 1.786743080744063406e+00 1.809651228070153994e+00 1.832816710398337712e+00 1.857530918990774271e+00 1.884076738964796327e+00 1.909086413652180791e+00 1.931900748503490028e+00 1.958477089831694329e+00 1.994486977123740568e+00 2.039868195734898748e+00 2.092734632812107254e+00 2.151862617322367388e+00 2.210028483170401792e+00 2.249560432614547523e+00 2.253938648120850097e+00 2.222859499636490543e+00 2.170259727940584860e+00 2.112862666459836447e+00 2.062575911230008607e+00 2.024065024488567843e+00 1.998259378521646035e+00 1.983989495625573918e+00 1.976326087808086829e+00 1.971051103641465740e+00 1.969513569740290571e+00 1.976467077437045194e+00 1.995814641915524046e+00 2.026874371279212106e+00 2.061073075928681497e+00 2.082446395333802158e+00 2.076873009678758208e+00 2.045942125563988689e+00 2.009123719305679234e+00 1.988245967482130228e+00 1.990930012287568829e+00 2.010033612742788911e+00 2.035711509046923773e+00 2.064519681930727213e+00 2.097229466560549316e+00 2.132478482044661838e+00 2.164299503546303072e+00 2.184054357182039663e+00 2.186704245248626055e+00 2.174767573615341121e+00 2.152939014461675349e+00 2.123462475506275204e+00 2.088983887013892371e+00 2.054001914461557554e+00 2.022516808912075970e+00 1.997377781352279946e+00 1.981755836250993497e+00 1.979062424121871722e+00 1.990995038598330158e+00 2.015762438910662091e+00 2.046334444075495362e+00 2.073898964701219594e+00 2.096656752660020828e+00 2.119602344244380543e+00 2.144902278355373948e+00 2.169239620782254185e+00 2.188611731400501359e+00 2.198230648063036696e+00 2.192768903943830061e+00 2.173539684878465827e+00 2.147992878607893452e+00 2.119898030778627707e+00 2.088817714789491298e+00 2.056857596190336146e+00
1.883158598914785431e+00 1.880038506177156732e+00 1.875102246097413161e+00 1.865122136064687908e+00 1.849684891845877921e+00 1.831658975487335805e+00 1.814643121121668923e+00 1.800246537013273862e+00 1.787218995886758588e+00 1.774148755414501455e+00 1.762516625971417561e+00 1.755264803353534964e+00 1.753228833708994294e+00 1.755122070808183388e+00 1.759781600121971046e+00 1.766504051538609676e+00 1.773813482442161860e+00 1.779838871924632526e+00 1.784451349693075617e+00 1.789116395367009282e+00 1.794407680910327318e+00 1.799569834173426752e+00 1.803755582212748454e+00 1.805739422595880495e+00 1.804006544386558719e+00 1.798708651963116800e+00 1.792400173053772860e+00 1.788041835194731144e+00 1.785817918127548420e+00 1.782871066788753289e+00 1.777753026495783484e+00 1.772948533025864970e+00 1.771183469866474791e+00 1.771698887229643748e+00 1.771373234417523923e+00 1.768242585194267136e+00 1.763095271931724106e+00 1.757822612726289924e+00 1.753450537298856027e+00 1.750434742378056630e+00 1.749554991540558602e+00 1.751251112092371276e+00 1.754518147163409703e+00 1.756917800890673398e+00 1.755717213954792744e+00 1.749777845219484984e+00 1.741373097063336761e+00 1.736041596959236433e+00 1.738896268922121013e+00 1.750568868768406672e+00 1.768231690085038554e+00 1.789051348210175973e+00 1.810498709761271918e+00 1.831226780888407735e+00 1.853449331609034134e+00 1.879253255277990142e+00 1.905988771675952709e+00 1.931433729046172720e+00 1.959333193702096576e+00 1.993921402895264539e+00 2.035421835189541007e+00 2.085438410758681194e+00 2.146376782850587084e+00 2.208602633775096358e+00 2.248819931804383998e+00 2.250024656460966277e+00 2.215991222452759146e+00 2.163284345935736930e+00 2.107236161078897663e+00 2.056089109447505336e+00 2.012988891664565738e+00 1.981302336663726349e+00 1.963284988935630526e+00 1.955058539724069178e+00 1.951059806704401378e+00 1.951341273484791250e+00 1.960384833826831485e+00 1.981700366977964034e+00 2.013930294046513136e+00 2.048110189713299611e+00 2.068252307162937509e+00 2.061311280289833014e+00 2.030625808917440711e+00 1.995790606718893301e+00 1.976971070927322494e+00 1.980567599069904539e+00 1.999216559411640448e+00 2.023228227608101282e+00 2.049566563114707307e+00 2.078659507689752051e+00 2.108656390180012608e+00 2.135802209284966224e+00 2.154787064763712401e+00 2.160535139616691858e+00 2.153205377941372678e+00 2.136845615468669912e+00 2.114198484752878748e+00 2.086321593012353759e+00 2.054260747411678523e+00 2.020558226564884041e+00 1.990275334337924029e+00 1.970237178920974053e+00 1.966405171911131289e+00 1.980162953584337249e+00 2.006653087449012940e+00 2.035518186914698546e+00 2.056654046727313556e+00 2.070157396017736851e+00 2.085459189613172448e+00 2.108462157504247259e+00 2.135904464193006724e+00 2.161040264985536474e+00 2.176980119576425121e+00 2.177683206872218502e+00 2.163338197285495035e+00 2.139850610681387266e+00 2.111015212150234355e+00 2.078806859919851924e+00 2.047723650585352217e+00
1.868109363473099416e+00 1.865302997717955824e+00 1.862003855996499091e+00 1.855872581836107482e+00 1.845312872738534393e+00 1.830918556387807428e+00 1.814974552595264079e+00 1.799039255770382040e+00 1.782548818251175060e+00 1.765847370082730627e+00 1.752447979836278646e+00 1.745495665357803095e+00 1.744199796458310914e+00 1.745930136441849356e+00 1.749839965932626029e+00 1.756348916693660556e+00 1.764179560040368466e+00 1.770501666070821045e+00 1.774071861976365794e+00 1.775992352425804999e+00 1.777821510023763540e+00 1.780594304525528360e+00 1.784434386761319491e+00 1.787718107971035364e+00 1.788103503343569489e+00 1.785200733797924100e+00 1.781052503357176242e+00 1.777898946979791006e+00 1.775651559354753495e+00 1.772177849465314647e+00 1.766918283336794238e+00 1.762163850110165297e+00 1.759471018074368898e+00 1.757619828400097006e+00 1.755189533459128759e+00 1.752690155824811358e+00 1.751099543824303328e+00 1.750067351764524659e+00 1.748692796820323636e+00 1.747287178587804135e+00 1.747251439395713257e+00 1.749130855152543518e+00 1.751490741593066502e+00 1.751637688837307083e+00 1.747367375794797395e+00 1.738992196551713221e+00 1.730438570104207763e+00 1.727826466786200665e+00 1.735137749406565399e+00 1.750718695068874009e+00 1.770033456095654545e+00 1.790547475125424004e+00 1.810982275296536770e+00 1.830470866424313447e+00 1.851386355468027656e+00 1.876721165319292783e+00 1.904450366201729361e+00 1.931224346763785515e+00 1.959067425921662053e+00 1.991899426806546192e+00 2.031193506231500745e+00 2.080407644429566272e+00 2.142682086292904575e+00 2.206294999948061886e+00 2.245180976362376235e+00 2.242723758430856140e+00 2.205598715164271972e+00 2.152505932313559356e+00 2.097998485016142389e+00 2.047748309949697365e+00 2.003748045906037056e+00 1.970003555851855381e+00 1.950003997278709544e+00 1.940787969924305578e+00 1.936483477624378002e+00 1.936724350118767202e+00 1.946212782568979449e+00 1.967924482050745993e+00 1.999809013711719707e+00 2.033560431449370931e+00 2.054044867472274216e+00 2.048202219508518329e+00 2.018941672763157946e+00 1.984884130155572413e+00 1.965041375049625838e+00 1.966097532308081375e+00 1.982242759045897973e+00 2.004873935614034153e+00 2.030870653289898797e+00 2.059334698562809596e+00 2.087023110419018668e+00 2.111253350932358330e+00 2.129331618273030635e+00 2.136489563597571362e+00 2.131268948971082988e+00 2.117665632657053987e+00 2.099443845298901934e+00 2.076750336088584614e+00 2.048097620398210417e+00 2.014924688455824509e+00 1.983527497018149344e+00 1.962493723581797855e+00 1.958703141814176929e+00 1.972985347497016262e+00 1.998453288873985434e+00 2.022964639300276701e+00 2.036848842723712139e+00 2.042903667846444282e+00 2.053530053441713132e+00 2.075542356259235000e+00 2.104439124030816899e+00 2.132276514373464327e+00 2.152554660211296156e+00 2.159703057138018245e+00 2.152260446240242153e+00 2.133459456778401098e+00 2.106184542121483538e+00 2.073753382087466512e+00 2.042542043043459099e+00
1.853704524838413636e+00 1.852893100428081530e+00 1.852553889354125793e+00 1.850112853790288669e+00 1.843106562491976685e+00 1.831017495342512902e+00 1.815480885852140736e+00 1.797790636537321074e+00 1.777520118676822580e+00 1.756611027269904035e+00 1.740983283907541646e+00 1.734482268905024771e+00 1.734975356536318181e+00 1.738180026361430430e+00 1.742473233547912947e+00 1.748434819901139470e+00 1.755329545658637080e+00 1.760670723089909018e+00 1.763052011854509438e+00 1.763230623527532348e+00 1.762947342939073625e+00 1.763931719225396044e+00 1.766948827237038611e+00 1.770885411136444709e+00 1.773619155765304267e+00 1.774144760185840441e+00 1.773152655767880725e+00 1.771625932577458595e+00 1.769259948593144394e+00 1.764924980138584676e+00 1.759082998247427421e+00 1.753855414766716692e+00 1.749870481112319798e+00 1.745772620148347887e+00 1.741603221238719801e+00 1.739602668286202469e+00 1.740690999964522589e+00 1.742798018887753875e+00 1.743601065713240361e+00 1.743420355411405165e+00 1.744299627877857972e+00 1.746605223927548689e+00 1.747827659960403901e+00 1.744839847485266437e+00 1.736884119341113974e+00 1.726752994922799544e+00 1.719653090318528532e+00 1.720828736357687294e+00 1.732295622424435910e+00 1.750663890425458558e+00 1.770772253368805504e+00 1.790909709424853613e+00 1.811014188019998805e+00 1.830452691407569610e+00 1.851017621480469666e+00 1.875670731158171067e+00 1.903061032170676903e+00 1.929540724438589150e+00 1.955985513546141252e+00 1.986932760949892351e+00 2.026045596261238924e+00 2.076934622537961239e+00 2.140183037494597151e+00 2.202024409710449326e+00 2.236842965084522294e+00 2.230033309615305992e+00 2.190150490650577986e+00 2.136612453406121936e+00 2.083308144635713344e+00 2.035284067221024173e+00 1.994405434491672846e+00 1.963300864940769497e+00 1.943961399006392421e+00 1.933657620291193258e+00 1.927159550012747857e+00 1.924877854895924667e+00 1.932673745647658148e+00 1.953582976477830746e+00 1.984887446163034141e+00 2.018490225967696450e+00 2.039926700588557296e+00 2.036139642579322562e+00 2.008976262906594812e+00 1.975130785738302031e+00 1.952417519808363755e+00 1.948958070375885976e+00 1.961900668755460320e+00 1.983906119323893602e+00 2.010432634600231694e+00 2.038669778386075659e+00 2.065007113483389833e+00 2.087907331525088672e+00 2.105956613161670710e+00 2.114142312900845866e+00 2.109537509908293806e+00 2.095767282510131224e+00 2.077926268456091741e+00 2.057378447404432986e+00 2.032506518803898654e+00 2.003485512693619519e+00 1.975165752442792577e+00 1.955785243730419065e+00 1.952943356286740206e+00 1.967280632091517933e+00 1.989947032661277593e+00 2.007825951364947237e+00 2.013912847407420603e+00 2.015156367053026365e+00 2.025352752815718915e+00 2.049019300796804277e+00 2.078553936419602177e+00 2.105281954658054566e+00 2.125059168251612007e+00 2.135357766269888380e+00 2.134794385821332519e+00 2.123452770866903538e+00 2.101109103987816695e+00 2.069987481448554156e+00 2.037523008068474084e+00
1.838969076852027706e+00 1.840775924492872750e+00 1.843823494712888422e+00 1.844351276916380566e+00 1.839211744756111155e+00 1.828197377976375826e+00 1.813430087347705610e+00 1.795772803585841570e+00 1.773918724602977282e+00 1.750263657699274056e+00 1.732509861376266613e+00 1.725642607044774124e+00 1.727258619780261295e+00 1.732022819331119123e+00 1.737184194270023019e+00 1.742851488523444736e+00 1.748746629281668685e+00 1.753146000444506303e+00 1.754947564532613580e+00 1.754727220057930914e+00 1.753935058348307319e+00 1.754074895099204001e+00 1.756068868883147172e+00 1.759717453890583982e+00 1.763826263212164180e+00 1.767034288290536770e+00 1.768583623105471903e+00 1.768264259176358433e+00 1.765713977083664954e+00 1.760705299555666681e+00 1.754431676929304018e+00 1.748739451828145164e+00 1.743635267916141540e+00 1.737899802798572590e+00 1.732408050436670788e+00 1.729998030333250281e+00 1.731483801120380139e+00 1.734243963063438532e+00 1.735493280735930899e+00 1.735720331240887537e+00 1.737490524700732397e+00 1.740819444101424640e+00 1.741751039641584509e+00 1.736535998883167009e+00 1.726247097371584882e+00 1.716276573728097610e+00 1.712160187679296453e+00 1.717160645155108245e+00 1.731340881124257436e+00 1.750702891956505303e+00 1.770585470949509022e+00 1.790247130716174695e+00 1.810389853303814522e+00 1.830271275031276401e+00 1.850688134358710712e+00 1.874215800393939313e+00 1.900666871336973429e+00 1.926890849749716139e+00 1.952439801020094290e+00 1.981926660326609024e+00 2.021254978333248076e+00 2.073926404612518759e+00 2.137127362679765774e+00 2.195349066792489978e+00 2.224974649887660583e+00 2.214250591523668543e+00 2.172903489697594281e+00 2.119546112493964518e+00 2.066889520513496947e+00 2.020592419006475460e+00 1.983451132943426121e+00 1.956312106022104036e+00 1.938687994328754050e+00 1.927649103180274270e+00 1.918856950444935539e+00 1.913734132875454685e+00 1.919430313739778349e+00 1.939547858223029664e+00 1.970819526019154999e+00 2.004317959455371501e+00 2.025626385019474895e+00 2.022785671231269511e+00 1.997688557359661887e+00 1.964802421197455295e+00 1.940195472270808796e+00 1.933379125125503917e+00 1.944224856106931743e+00 1.965867252654907693e+00 1.991492515867357538e+00 2.016999263503768347e+00 2.040776741656645132e+00 2.063587228695434650e+00 2.083688163071395039e+00 2.094024362145255225e+00 2.089794142662574128e+00 2.074041624627090297e+00 2.053396730974503370e+00 2.032234217814791855e+00 2.010834823829387830e+00 1.987848834958863442e+00 1.964524395322347905e+00 1.947571245478526336e+00 1.945786851355433500e+00 1.959879489784654982e+00 1.978434444373020407e+00 1.987583758153854463e+00 1.984953843096226134e+00 1.983072283077558673e+00 1.996094999903327283e+00 2.024426433492257704e+00 2.056298365553353324e+00 2.081386012776714090e+00 2.097599828803966115e+00 2.107127543015852922e+00 2.111224929380669302e+00 2.107805206094018668e+00 2.092482523763727009e+00 2.064499571410608247e+00 2.031072988387109923e+00
